# .PCD v0.7 - Point Cloud Data file format
VERSION 0.7
FIELDS x y z rgb
SIZE 4 4 4 4
TYPE F F F F
COUNT 1 1 1 1
WIDTH 1005
HEIGHT 1
VIEWPOINT 0 0 0 1 0 0 0
POINTS 1005
DATA ascii
0.72473663 -0.053879607 0.70649928 1.5672896e-38
0.73140669 -0.051353268 0.70648515 1.5581061e-38
0.43829653 -0.047030102 0.70392597 4.141937e-39
0.44373217 -0.043663431 0.70677143 4.5096307e-39
0.45013124 -0.040785119 0.70949471 4.7847728e-39
0.48966539 -0.049184561 0.70611751 6.7169056e-39
0.49254116 -0.043595415 0.70594805 6.4424893e-39
0.69688576 -0.044629235 0.70197868 1.4382517e-38
0.70537251 -0.044673964 0.70445514 1.8068899e-38
0.71542102 -0.045210689 0.70573944 1.5581061e-38
0.72512829 -0.045049302 0.70610636 1.4935692e-38
0.7347607 -0.044250678 0.7064153 1.5581061e-38
0.74424046 -0.04287684 0.70466304 1.7240221e-38
0.75379038 -0.041867867 0.70172203 1.9268527e-38
0.44795707 -0.03859859 0.70401853 4.2348543e-39
0.45507693 -0.034910936 0.70567894 4.5103566e-39
0.46238884 -0.031575203 0.70828086 4.6925786e-39
0.49170184 -0.036654361 0.70945752 6.6250701e-39
0.688416 -0.032746848 0.70158017 1.290775e-38
0.69472742 -0.035408095 0.70333081 1.6963994e-38
0.70524824 -0.035303324 0.70499021 1.6687406e-38
0.71575516 -0.034626972 0.70541745 1.4935692e-38
0.72532058 -0.035007108 0.70609927 1.5027888e-38
0.7353673 -0.035231192 0.70630121 1.7701558e-38
0.74539083 -0.03463928 0.70657516 1.889974e-38
0.75402123 -0.034458704 0.70480758 1.8161813e-38
0.46613061 -0.026557142 0.70505357 4.3266884e-39
0.47450644 -0.023201875 0.70624369 4.969527e-39
0.48351568 -0.024071198 0.70741916 5.5216162e-39
0.67873114 -0.020865597 0.70072764 3.3209512e-39
0.68520015 -0.024291819 0.70292228 7.2853563e-39
0.69494396 -0.025286185 0.70524687 1.6779975e-38
0.70536852 -0.025397738 0.70567203 1.5304475e-38
0.71563703 -0.024886427 0.70553172 1.5120083e-38
0.72562778 -0.025229331 0.70580834 1.6687406e-38
0.73535711 -0.024655072 0.70647001 1.9084131e-38
0.74472302 -0.025593659 0.70698631 1.889974e-38
0.7518 -0.027344009 0.70642549 1.9268525e-38
0.47705406 -0.019550685 0.70048505 5.5295728e-39
0.66783184 -0.016996933 0.7048521 4.1427539e-39
0.67669898 -0.014190483 0.70259374 3.8748621e-39
0.68483764 -0.015231973 0.70528483 4.5202539e-39
0.69473702 -0.014550827 0.70632648 6.0872097e-39
0.70488763 -0.014769576 0.70615089 1.2539369e-38
0.71525359 -0.015135358 0.70590109 1.5857647e-38
0.72532159 -0.015411957 0.70609856 1.9176328e-38
0.73426139 -0.015039033 0.70708561 1.9268525e-38
0.74408668 -0.015688881 0.70408493 1.7055823e-38
0.6683467 -0.0028191225 0.70129842 3.8741404e-39
0.6744312 -0.0057567167 0.7044245 4.0588988e-39
0.68441796 -0.0054504587 0.70638484 4.9812419e-39
0.69455063 -0.0049700206 0.70651138 4.8890463e-39
0.70466709 -0.0051817847 0.70635706 5.1656304e-39
0.71484381 -0.0045096045 0.70629531 1.0972446e-38
0.72470266 -0.0046992595 0.70668584 1.9084501e-38
0.73356795 -0.0054176478 0.70642453 1.7609382e-38
0.74054623 -0.0041838195 0.70284963 1.4566956e-38
0.65931273 0.0092482623 0.70075452 1.097128e-38
0.66562343 0.0052762353 0.70351696 9.2203295e-39
0.67504418 0.0046865866 0.706303 4.7050095e-39
0.68478751 0.0047298283 0.7064659 4.889405e-39
0.69462329 0.004598103 0.70643955 4.8890477e-39
0.70465875 0.004463546 0.70636487 4.9812419e-39
0.71482152 0.0052113668 0.70631677 4.8890449e-39
0.72448981 0.0047937585 0.70647913 8.0229466e-39
0.73184967 0.0037888372 0.70524949 1.0051228e-38
0.6438266 0.010709068 0.7053777 6.8067092e-39
0.65657997 0.016001286 0.70259923 1.3644952e-38
0.66475499 0.014781343 0.70512575 1.6595223e-38
0.67486298 0.015386015 0.70586067 9.313286e-39
0.68510628 0.015088762 0.70614523 4.889405e-39
0.69465941 0.014993404 0.70630097 5.0730704e-39
0.70462281 0.014985646 0.7064001 4.9812419e-39
0.71488088 0.014930468 0.70625979 4.8890477e-39
0.723037 0.013006195 0.70594877 4.9812447e-39
0.64769542 0.026509674 0.70190442 1.3919016e-38
0.65531832 0.025246343 0.70350808 1.6687409e-38
0.66451359 0.025403442 0.70514798 1.4843496e-38
0.67470926 0.025429457 0.70566899 1.5027888e-38
0.68528861 0.025456825 0.70596164 1.1617783e-38
0.69472849 0.025518579 0.70643753 6.1794081e-39
0.70448965 0.025506204 0.70653015 4.9812433e-39
0.71350443 0.024411272 0.7061947 5.8106312e-39
0.64537191 0.03591267 0.70302314 1.5765091e-38
0.65500951 0.035256039 0.70482624 1.5488866e-38
0.66448218 0.03561325 0.70518142 1.5027888e-38
0.67455935 0.035239313 0.70555013 1.5120083e-38
0.68537068 0.034964185 0.70587885 1.705583e-38
0.69485044 0.035056386 0.70621461 1.7978162e-38
0.70436311 0.034844406 0.70600486 1.078769e-38
0.71230394 0.033484567 0.70383054 1.7516812e-38
0.45493463 0.047904152 0.70383483 7.0075741e-39
0.64708358 0.043027196 0.70229506 1.3921539e-38
0.65484631 0.046039958 0.70370704 1.4105931e-38
0.66536093 0.045179572 0.70528793 1.4751301e-38
0.67558557 0.044372696 0.70589405 1.6133875e-38
0.68536973 0.044471357 0.70588088 1.9545467e-38
0.69551814 0.044341248 0.7052179 1.9544742e-38
0.70369977 0.043947022 0.70361769 1.9084134e-38
0.4537003 0.055545405 0.70328754 8.3972446e-39
0.64060014 0.051934086 0.70472085 8.9080431e-39
0.65743297 0.052637588 0.70150739 1.1616649e-38
0.66538191 0.054489743 0.70374078 1.2815193e-38
0.67492592 0.055101886 0.70647174 1.6963634e-38
0.68490213 0.054497655 0.7066853 2.009828e-38
0.69425744 0.054219153 0.70482117 2.0190476e-38
0.70016307 0.054427736 0.70217663 2.0375233e-38
0.4556433 0.063298896 0.70480311 8.4908584e-39
0.46217775 0.068108872 0.70547175 8.3064685e-39
0.66786426 0.061056618 0.7016623 1.0325911e-38
0.67539877 0.06305185 0.7046262 1.4382518e-38
0.6853748 0.065183155 0.70453399 1.6779603e-38
0.69094753 0.063382842 0.70559698 1.89923e-38
0.4676109 0.071699448 0.70437926 8.3064685e-39
0.47547793 0.076910637 0.70547801 8.3064685e-39
0.48543209 0.083421044 0.70486057 8.3064685e-39
0.49298051 0.088300608 0.70516413 8.3064699e-39
0.49793392 0.09147241 0.70479596 8.3064685e-39
0.50519878 0.095985778 0.70516109 8.5819736e-39
0.51029456 0.099165149 0.70356488 8.398304e-39
0.51582903 0.1024797 0.70476204 8.4869025e-39
0.52481288 0.10748827 0.70516032 8.3911448e-39
0.53495449 0.11305818 0.70424104 7.8376305e-39
0.54330176 0.11591215 0.70671952 8.3975921e-39
0.6084559 0.13592476 0.70509195 1.1985432e-38
0.61061049 0.13156709 0.70777696 1.1801041e-38
0.60773754 0.14508286 0.70480871 1.2722997e-38
0.61071348 0.14837044 0.70896983 1.3737149e-38
0.60843921 0.15162539 0.70236111 1.2999584e-38
0.61375654 0.15327296 0.70574361 1.3737149e-38
0.4488121 0.18979758 0.70395678 1.1983495e-38
0.45370042 0.18948261 0.70596337 1.2074955e-38
0.43907717 0.19932577 0.70720184 1.1781512e-38
0.4431431 0.19443257 0.70531738 1.1788676e-38
0.43550637 0.20500411 0.70497662 1.1697915e-38
0.44763565 0.20719066 0.70550245 1.0049212e-38
0.42797694 0.21611744 0.70532912 1.0418682e-38
0.43117127 0.21116641 0.70524085 1.1706156e-38
0.42492607 0.2245101 0.705208 1.041617e-38
0.4275237 0.23241018 0.70502031 4.8863614e-39
0.43265742 0.23762631 0.70666921 4.9785584e-39
0.44422308 0.23961444 0.70886683 7.1904856e-39
0.43613243 0.24012198 0.70106941 4.7023345e-39
0.44619811 -0.3955757 0.71399373 6.5228496e-39
0.43813878 -0.38241035 0.71560496 7.3543955e-39
0.44158062 -0.38806286 0.71521896 7.9097231e-39
0.43369251 -0.37464365 0.71511662 8.1805576e-39
0.42789036 -0.36409944 0.71535963 1.0853491e-38
0.43020523 -0.36879361 0.71816856 1.0667306e-38
0.42318526 -0.35506546 0.71463269 1.1041474e-38
0.41777933 -0.34469149 0.71529287 1.0767038e-38
0.42042992 -0.3497853 0.71513009 1.1229094e-38
0.41279891 -0.33502367 0.71538645 8.6451231e-39
0.39955053 -0.3241643 0.71257371 7.1671344e-39
0.4075622 -0.3247447 0.71506304 8.5507751e-39
0.40274891 -0.31446117 0.71562988 6.2451865e-39
0.39846742 -0.3039307 0.71499783 6.3373807e-39
0.4004682 -0.30843672 0.71657676 6.2448278e-39
0.63803256 -0.30038214 0.71237111 1.5684636e-39
0.39629623 -0.29459158 0.71505928 6.2448278e-39
0.40003866 -0.29036325 0.71007013 6.2448278e-39
0.62882429 -0.29028386 0.71019119 2.8657072e-39
0.63383245 -0.2949684 0.71512997 2.6827481e-39
0.39872789 -0.28935668 0.71830863 6.2448278e-39
0.40507534 -0.28554675 0.71462518 7.0760191e-39
0.41128555 -0.2809068 0.713606 9.7648194e-39
0.62583393 -0.28485638 0.71488065 2.7875246e-39
0.41615954 -0.27755994 0.71489304 8.8385443e-39
0.42486972 -0.2726534 0.71457022 8.4679625e-39
0.61842543 -0.27340785 0.71432334 2.7886022e-39
0.6215322 -0.27816859 0.71573597 2.7896798e-39
0.4344686 -0.26733339 0.7155112 7.6346019e-39
0.61345607 -0.26517931 0.7151106 3.0662638e-39
0.60653138 -0.25502414 0.71498239 3.2502936e-39
0.61003172 -0.25985563 0.71639824 2.7907588e-39
0.59736627 -0.24281549 0.71500158 3.5261588e-39
0.60151714 -0.24807228 0.7147063 3.7098298e-39
0.58862185 -0.23194289 0.71472263 3.8938609e-39
0.59256828 -0.23680863 0.71512169 3.4343233e-39
0.57890117 -0.22036433 0.71224838 5.456858e-39
0.58328527 -0.22525656 0.71531487 3.6179943e-39
0.57484442 -0.21491696 0.71492398 3.3399739e-39
0.56672943 -0.20485631 0.71514475 2.786447e-39
0.57132733 -0.20976284 0.71881545 2.7907588e-39
0.54370296 -0.19040689 0.7129032 2.9517932e-39
0.55716324 -0.1933295 0.71486431 2.7846491e-39
0.56140202 -0.19840519 0.71505153 2.7853694e-39
0.54926288 -0.18164062 0.71584147 2.7842904e-39
0.55233204 -0.18665777 0.71517891 2.7846505e-39
0.54640216 -0.17446446 0.71267092 2.8671435e-39
0.54225922 -0.16433492 0.71450233 2.9550288e-39
0.54638588 -0.15620925 0.71402943 3.0439944e-39
0.5518195 -0.15191415 0.71639448 3.0439944e-39
0.55632395 -0.14926025 0.71593094 2.9517946e-39
0.56523496 -0.14721276 0.71525931 2.9517932e-39
0.57517612 -0.14614502 0.71479422 2.9517932e-39
0.58163166 -0.14553395 0.71508062 2.9517932e-39
0.44800383 -0.061638936 0.7114262 5.0606381e-39
0.45435205 -0.063275754 0.71187228 6.2566519e-39
0.462706 -0.061123747 0.71096009 6.5328759e-39
0.44605446 -0.054314386 0.7121864 5.520533e-39
0.45472515 -0.054828532 0.71395069 6.2566519e-39
0.4646444 -0.05465766 0.71323949 6.5328759e-39
0.47396198 -0.053308345 0.71187729 6.4406816e-39
0.48091918 -0.051217228 0.71114284 6.5328759e-39
0.44733772 -0.046683438 0.71155107 5.2446678e-39
0.45499864 -0.045108348 0.71315414 5.796757e-39
0.46463031 -0.044793908 0.71431935 6.2566519e-39
0.47461042 -0.044859633 0.71406394 6.4406816e-39
0.48395997 -0.044181358 0.71283239 6.7165469e-39
0.45698145 -0.038779601 0.71111941 5.2446678e-39
0.4654941 -0.035622686 0.71214974 5.7045627e-39
0.47476423 -0.034721736 0.71363759 6.0726222e-39
0.48423237 -0.035481922 0.71320426 6.5325171e-39
0.46934319 -0.028947197 0.71058023 5.4286975e-39
0.47578952 -0.027837062 0.71163523 5.4286975e-39
0.48315388 -0.027945723 0.71104515 6.3488461e-39
0.49104473 -0.021470146 0.71255118 5.337225e-39
0.68867123 -0.023305368 0.71903855 1.1241383e-38
0.68598688 0.018482279 0.71656299 1.5027888e-38
0.45456868 0.048523456 0.71422625 6.730281e-39
0.4604004 0.0483106 0.71141165 7.5600416e-39
0.45240879 0.055215146 0.71535599 7.1958638e-39
0.45585516 0.062909767 0.71473324 8.3064685e-39
0.46347001 0.068223342 0.71470553 8.3064685e-39
0.67537409 0.06139335 0.71248108 1.0227591e-38
0.46813378 0.071274601 0.71483117 8.3064699e-39
0.47436956 0.075793169 0.71499103 8.3064685e-39
0.48462933 0.083133936 0.71524292 8.5808946e-39
0.49261945 0.088248491 0.71503913 8.0252125e-39
0.49754849 0.09123487 0.71446115 8.7609853e-39
0.5054127 0.096005969 0.71480209 8.9432634e-39
0.51174134 0.099849708 0.7176159 1.1801041e-38
0.51525754 0.10197141 0.71428609 9.8641855e-39
0.5237872 0.10686569 0.71510708 1.0787249e-38
0.5373773 0.10837628 0.71143007 8.8560774e-39
0.52951515 0.11014688 0.71739823 8.9429775e-39
0.53491014 0.11325805 0.71456254 8.4848328e-39
0.54298311 0.11740173 0.71601707 6.3671625e-39
0.61306608 0.12986016 0.71422184 1.1801041e-38
0.61249995 0.13542861 0.71484977 1.1985432e-38
0.61472392 0.14485833 0.71359152 1.5027888e-38
0.62217468 0.14660822 0.71672493 1.4474714e-38
0.61882532 0.15101099 0.71146417 1.5673257e-38
0.62224984 0.15044753 0.71253657 1.5765453e-38
0.45460522 0.18976785 0.71515799 1.2627022e-38
0.43938065 0.19892806 0.71315849 1.1686094e-38
0.44436562 0.19390123 0.71570021 1.3442082e-38
0.45218137 0.19089556 0.71759969 1.5299937e-38
0.43546444 0.20495929 0.71542937 1.1783303e-38
0.44036984 0.20002055 0.71959871 1.214599e-38
0.41823423 0.21947947 0.7170276 5.9923362e-39
0.42771286 0.21640046 0.71553075 1.179835e-38
0.43098015 0.21167248 0.71615613 1.1798709e-38
0.42555785 0.22470871 0.71520972 1.0415814e-38
0.45369467 0.2210792 0.71720958 1.2894293e-38
0.42828703 0.23222417 0.71348691 6.2689287e-39
0.43286046 0.23645194 0.71608961 7.7432993e-39
0.43896055 0.24162707 0.71431631 7.7436468e-39
0.44350958 0.24410604 0.7172181 1.0323977e-38
0.44503713 -0.39476058 0.72450197 6.2451879e-39
0.4380587 -0.38356629 0.72564584 6.2448278e-39
0.4405638 -0.38784513 0.72791302 6.2448278e-39
0.43316117 -0.37489393 0.72506958 8.9191989e-39
0.42766258 -0.36460575 0.72555834 1.0397538e-38
0.43058103 -0.36963892 0.72006375 1.0666589e-38
0.42258912 -0.3546727 0.72449476 9.2919232e-39
0.41763619 -0.34506613 0.72518927 1.0583721e-38
0.39580572 -0.33340943 0.72827935 9.4773879e-39
0.41259256 -0.33520761 0.72526586 9.2865394e-39
0.40736356 -0.32494915 0.72499681 6.6136061e-39
0.40333351 -0.31507954 0.72473037 6.2448278e-39
0.39915982 -0.30270872 0.72474873 6.2448278e-39
0.40084732 -0.30766219 0.72415632 6.2448278e-39
0.41317409 -0.30433685 0.72519493 6.4299365e-39
0.39652738 -0.29439798 0.7241978 6.2448278e-39
0.6351288 -0.29458901 0.7250604 2.5894748e-39
0.64124596 -0.29876661 0.72931892 1.5684636e-39
0.39787853 -0.28872234 0.72564989 6.8901888e-39
0.40498161 -0.28430042 0.72473419 6.9845466e-39
0.41101572 -0.28076753 0.72465587 8.6534328e-39
0.62665206 -0.28367606 0.72540081 2.7903986e-39
0.63072288 -0.28904742 0.72616065 2.7907588e-39
0.41607609 -0.2777777 0.72449666 8.8381842e-39
0.42506996 -0.27264121 0.72487593 6.6157711e-39
0.43881851 -0.27724627 0.72323561 7.1689364e-39
0.61910319 -0.27220631 0.72437131 2.7903986e-39
0.62224138 -0.27705273 0.72494334 2.7903986e-39
0.42795092 -0.26954609 0.72654152 7.8193519e-39
0.43440959 -0.26740801 0.72558516 6.2448278e-39
0.61481619 -0.26534206 0.72490811 2.7907588e-39
0.59636843 -0.25025928 0.72931421 2.7868057e-39
0.60720217 -0.25439596 0.72457993 2.7907588e-39
0.61097586 -0.25931874 0.72729903 2.7907588e-39
0.5983395 -0.24253193 0.72516787 2.7907588e-39
0.60218412 -0.2474227 0.72490597 2.7903986e-39
0.61920494 -0.24993977 0.72113883 3.5053481e-39
0.58925366 -0.23123682 0.72426498 2.7907588e-39
0.59327841 -0.23612285 0.72524476 2.7903986e-39
0.58432817 -0.22483355 0.72510004 2.7903986e-39
0.57599366 -0.21436541 0.72466224 2.7903986e-39
0.58039272 -0.21936382 0.7273106 2.7907588e-39
0.56699663 -0.20316531 0.72425711 2.7903986e-39
0.5712378 -0.20796207 0.72639245 2.7907588e-39
0.55810386 -0.19250633 0.72466117 2.7907588e-39
0.56229824 -0.19730379 0.72518784 2.7903986e-39
0.54887092 -0.1817473 0.72384274 2.7907588e-39
0.55296445 -0.18635777 0.72562009 2.7903986e-39
0.5622617 -0.18448426 0.72410691 2.8685827e-39
0.54505259 -0.1745884 0.72531384 2.791479e-39
0.5385381 -0.16385417 0.72450501 2.8617555e-39
0.54366893 -0.16569915 0.72447449 2.970841e-39
0.54596651 -0.1552991 0.7260927 2.9532309e-39
0.55337942 -0.15072079 0.72002667 2.9517932e-39
0.55437851 -0.14845759 0.72533947 2.9517932e-39
0.56634712 -0.14652227 0.72460479 2.9517932e-39
0.57733083 -0.14566182 0.72610468 2.9517932e-39
0.45461592 0.048567384 0.72439843 5.9005203e-39
0.45273301 0.054965097 0.72512746 7.1040283e-39
0.4563652 0.062490877 0.72496241 8.3064685e-39
0.46275961 0.067770965 0.72516763 8.6734475e-39
0.46742952 0.071330108 0.72584677 8.3000085e-39
0.47478479 0.075932913 0.72482312 8.4837005e-39
0.48041353 0.079857379 0.72774833 1.0602483e-38
0.48540613 0.083461039 0.72478181 9.3113522e-39
0.49369997 0.08868508 0.72502059 1.1155663e-38
0.48954487 0.098884806 0.72642976 9.2195602e-39
0.49827078 0.091549277 0.72642946 1.1616649e-38
0.50447845 0.095478952 0.72449875 1.1432258e-38
0.51074511 0.099300891 0.72497511 1.1155671e-38
0.51663798 0.10266175 0.72516859 8.8507819e-39
0.52547926 0.10768136 0.72480041 7.6522387e-39
0.53507268 0.11305666 0.724778 7.8394606e-39
0.5440616 0.1162103 0.72670567 9.5982667e-39
0.61630607 0.13503237 0.72567761 1.1878472e-38
0.61802733 0.14099279 0.72197253 1.1893236e-38
0.6245991 0.14262222 0.72454041 1.3453001e-38
0.44586039 0.19707483 0.72329098 1.5103011e-38
0.45472586 0.19551422 0.72341406 1.9356842e-38
0.46320346 0.19789998 0.72264832 1.9724184e-38
0.4376201 0.20696735 0.72267592 1.3991664e-38
0.44479778 0.20479515 0.72599882 1.7688389e-38
0.45502919 0.20492211 0.72705579 1.9910007e-38
0.4645744 0.20515896 0.72553575 2.0647202e-38
0.472422 0.20626155 0.72134811 2.0830878e-38
0.42868179 0.21845877 0.72130758 1.2904681e-38
0.43450707 0.21528624 0.72457665 1.5946373e-38
0.44468436 0.21488145 0.72760665 1.9172453e-38
0.45484355 0.21482925 0.72826993 1.9817813e-38
0.46453834 0.21493447 0.72730494 2.0555008e-38
0.47209316 0.21330848 0.72381324 2.0462824e-38
0.42794284 0.22446041 0.72251981 1.3918459e-38
0.43478906 0.2251837 0.72611088 1.7789899e-38
0.44465265 0.22486743 0.72794181 1.9356842e-38
0.45492405 0.22479568 0.72805882 2.0002202e-38
0.46299607 0.22418481 0.72645026 2.0278784e-38
0.42948297 0.23098417 0.72180581 1.2075293e-38
0.43572596 0.23408601 0.72391605 1.4840407e-38
0.44469658 0.23504679 0.72692621 1.760551e-38
0.45391253 0.23424704 0.72732008 1.9725619e-38
0.46092653 0.23274435 0.72460938 2.0370978e-38
0.44588256 0.24201076 0.72375375 1.4563822e-38
0.4515247 0.2405968 0.72595721 1.8435258e-38
0.44443652 -0.39449975 0.73515451 6.2448278e-39
0.45714834 -0.39080337 0.73810238 6.2448278e-39
0.43778676 -0.38359535 0.73458803 6.1529923e-39
0.44091797 -0.38876233 0.73504925 6.2448278e-39
0.43350893 -0.37521034 0.73541248 7.4444387e-39
0.41565368 -0.36152363 0.73120975 6.1529923e-39
0.42723802 -0.36482972 0.7355966 8.1859414e-39
0.43019074 -0.36985594 0.73053962 1.0115216e-38
0.42226577 -0.35501817 0.73482943 6.4302938e-39
0.41730392 -0.34506345 0.73539042 9.0174887e-39
0.40999472 -0.33050746 0.73348546 6.3373807e-39
0.41273642 -0.33595875 0.73521405 6.7075954e-39
0.40723431 -0.3251344 0.73526931 6.337022e-39
0.39969903 -0.31090891 0.73825443 6.2448278e-39
0.40296879 -0.31628644 0.73458391 6.2448278e-39
0.39802933 -0.30488092 0.73565692 6.2448278e-39
0.40109539 -0.3097164 0.73099548 6.2448278e-39
0.39626127 -0.2926335 0.73558086 6.7979931e-39
0.63632464 -0.29267147 0.73453236 2.9568294e-39
0.64211315 -0.29760581 0.73391199 2.0298159e-39
0.39883184 -0.28906175 0.73331583 8.6425994e-39
0.40439036 -0.28512931 0.73509222 6.4295763e-39
0.41137692 -0.28073594 0.73489386 7.1714644e-39
0.62792689 -0.28344119 0.73464876 2.7832128e-39
0.63212323 -0.28791481 0.73607135 2.9636538e-39
0.41648197 -0.277814 0.7348932 9.9499296e-39
0.42481464 -0.27324471 0.73500007 9.9492079e-39
0.43251562 -0.27079433 0.73794937 8.5605155e-39
0.44817677 -0.27487692 0.73104531 6.2448278e-39
0.61939359 -0.27091235 0.73468733 2.7835715e-39
0.62287611 -0.27609682 0.73527277 2.7806974e-39
0.43584275 -0.26818877 0.73478943 6.3377436e-39
0.44156042 -0.26647753 0.73657095 6.2448278e-39
0.6153186 -0.26477382 0.7348367 2.781775e-39
0.60727328 -0.2534959 0.73487383 2.7814163e-39
0.61092949 -0.2582998 0.73558944 2.7799786e-39
0.59847939 -0.24207613 0.73515683 2.7824939e-39
0.60230994 -0.24720243 0.73515117 2.7814163e-39
0.57995379 -0.23867989 0.73448199 3.3209512e-39
0.58964205 -0.23030615 0.73328483 2.7853694e-39
0.59351444 -0.23534881 0.73481554 2.7824939e-39
0.58586848 -0.22506115 0.73525494 2.781775e-39
0.60150492 -0.22855689 0.73658657 7.0198537e-39
0.57680333 -0.21370308 0.73483038 2.7839316e-39
0.58090812 -0.21877868 0.73496771 2.7835715e-39
0.56788182 -0.20262016 0.73514086 2.7839316e-39
0.5719527 -0.20755684 0.7356447 2.781775e-39
0.58122683 -0.20592305 0.73266 1.0054014e-38
0.55870044 -0.19150154 0.73465729 2.786447e-39
0.56288564 -0.19648552 0.73536688 2.7839316e-39
0.5485996 -0.18035564 0.73063725 2.7907588e-39
0.55342442 -0.185133 0.73526323 2.7850092e-39
0.56883991 -0.18165502 0.7371071 3.5053383e-39
0.54767036 -0.17506075 0.73540407 2.8808034e-39
0.55066007 -0.17881548 0.73911619 3.1408648e-39
0.54495496 -0.16519758 0.73655444 3.066638e-39
0.54657686 -0.15597086 0.73400766 2.9543099e-39
0.55090964 -0.15101016 0.7339052 2.9517932e-39
0.55469012 -0.14749563 0.73546642 2.951796e-39
0.56309074 -0.14540607 0.73567051 2.9517932e-39
0.57414454 -0.14505675 0.73492473 2.9517932e-39
0.58092147 -0.14452797 0.7384631 2.9517932e-39
0.45473835 0.048428338 0.73370719 6.8224766e-39
0.462861 0.047353547 0.73288363 4.7019771e-39
0.44249046 0.054955132 0.73898375 8.3064685e-39
0.45339864 0.054576129 0.73566753 7.1962225e-39
0.45775452 0.062728979 0.73551053 8.3064685e-39
0.46303573 0.067863062 0.73468733 8.2131967e-39
0.46804467 0.071135245 0.73442173 8.1135545e-39
0.47506556 0.075870037 0.73531568 1.1155671e-38
0.48036623 0.079550602 0.73380488 1.1432258e-38
0.48537585 0.083187595 0.73458958 1.0602496e-38
0.49248505 0.088038824 0.73504621 8.2976067e-39
0.49751699 0.091210626 0.73539758 7.6522387e-39
0.50529963 0.095995829 0.73489326 7.3756504e-39
0.51331389 0.099033087 0.73508269 7.8398025e-39
0.51550323 0.10196457 0.73426402 8.0213813e-39
0.52411032 0.10682142 0.73506331 8.5741936e-39
0.53236413 0.11139166 0.73411006 9.1273618e-39
0.62837243 0.11655174 0.73317504 1.392154e-38
0.62485266 0.12761922 0.73445415 1.4361993e-38
0.63297296 0.12852499 0.73206037 1.8689067e-38
0.61922407 0.13221093 0.73134947 1.2502957e-38
0.6238454 0.13455562 0.73519564 1.3327678e-38
0.4443244 -0.39507452 0.74547404 6.2448278e-39
0.43768197 -0.38372794 0.74443078 6.2448278e-39
0.44045147 -0.38874796 0.74728394 6.2448278e-39
0.42994642 -0.37019944 0.74059796 6.2448278e-39
0.43282443 -0.37492299 0.74522483 6.2448278e-39
0.42699724 -0.36448699 0.74526292 6.8001511e-39
0.41995823 -0.35043073 0.74415863 6.2448278e-39
0.42237413 -0.35535285 0.74455619 6.1529923e-39
0.41752046 -0.34540954 0.74520016 6.2451865e-39
0.40994447 -0.33080727 0.74447912 6.2448278e-39
0.41238096 -0.33544692 0.74503702 6.1529909e-39
0.40693563 -0.32502666 0.74526107 6.2448278e-39
0.39939961 -0.31094837 0.74602932 6.2448278e-39
0.4021011 -0.31585202 0.74454713 6.2448278e-39
0.39637914 -0.30517066 0.74604607 6.2448278e-39
0.39624393 -0.29474565 0.74458575 7.1671302e-39
0.40084797 -0.2906366 0.74605018 6.2448278e-39
0.62100786 -0.29001129 0.74746549 3.5975451e-39
0.63789088 -0.2919327 0.7447331 2.9517932e-39
0.64125466 -0.29590285 0.74448556 1.9372559e-39
0.4054608 -0.28578952 0.74491912 6.5228552e-39
0.4110443 -0.28087008 0.74609941 8.283214e-39
0.62907976 -0.28184214 0.7444315 2.9517932e-39
0.63330591 -0.28648871 0.74534881 2.9517932e-39
0.4161858 -0.27792364 0.74532098 8.0051837e-39
0.42502537 -0.27389684 0.74497443 6.4299379e-39
0.43261445 -0.27098823 0.74507242 6.2448278e-39
0.62373066 -0.2748895 0.74502349 2.9517932e-39
0.6734466 -0.27476171 0.74882889 4.5202497e-39
0.43765143 -0.26914048 0.7452755 6.2448278e-39
0.44253334 -0.26736307 0.7444213 6.2448278e-39
0.6164844 -0.26492256 0.74464458 2.9517932e-39
0.62053764 -0.26938194 0.74969202 2.9517932e-39
0.66877174 -0.26468664 0.74949473 4.8893994e-39
0.67042381 -0.26375455 0.74790138 4.7971869e-39
0.43807089 -0.25343969 0.7457661 7.3565745e-39
0.60742921 -0.25316569 0.7457369 2.9517932e-39
0.61127311 -0.25801474 0.74451256 2.9517932e-39
0.66717672 -0.2558358 0.7479744 4.7046228e-39
0.59877753 -0.24223238 0.74476939 2.9517932e-39
0.60257405 -0.24714203 0.74539161 2.9517932e-39
0.65819848 -0.2425278 0.74772906 4.243646e-39
0.66288733 -0.2483719 0.74754208 4.6124229e-39
0.58145601 -0.23809937 0.74505055 1.4197805e-38
0.5935992 -0.23501433 0.74517936 2.9517932e-39
0.63111156 -0.23441768 0.74789637 5.0738033e-39
0.64819491 -0.2324018 0.74901694 4.5202357e-39
0.65307713 -0.23473297 0.74646008 4.5205818e-39
0.58628249 -0.22484605 0.74542093 2.9517932e-39
0.59020364 -0.22963171 0.74890614 2.9517932e-39
0.64578372 -0.22541711 0.74683559 4.9819243e-39
0.65004826 -0.22869416 0.74486572 5.073764e-39
0.57769442 -0.2132439 0.74504119 2.9517946e-39
0.5815649 -0.21806005 0.74609739 2.9517932e-39
0.63576269 -0.21527921 0.74930215 4.9816034e-39
0.6410833 -0.21836856 0.74696845 6.2719275e-39
0.56879604 -0.20199934 0.74416888 2.9517932e-39
0.57295519 -0.2067765 0.74606919 2.9517946e-39
0.58568472 -0.20327617 0.7472924 8.386627e-39
0.62730026 -0.20118977 0.7472645 6.7325469e-39
0.63133717 -0.20667563 0.74769998 6.179743e-39
0.55944729 -0.19076414 0.74343997 2.9517932e-39
0.56378216 -0.19527295 0.7456876 2.9517946e-39
0.61810827 -0.19109832 0.74993736 5.3500034e-39
0.62424242 -0.19588254 0.74698687 6.6407086e-39
0.55553055 -0.18472429 0.74499542 3.0439916e-39
0.56004041 -0.18828352 0.74966168 2.9517932e-39
0.61403781 -0.18417886 0.74917328 5.0734347e-39
0.54889196 -0.17322391 0.74691725 3.043993e-39
0.55141628 -0.17653941 0.74490184 3.043993e-39
0.60672861 -0.17356463 0.74867332 5.0737878e-39
0.61028874 -0.17882705 0.74900985 4.8894036e-39
0.54802066 -0.16449028 0.74314332 2.9539512e-39
0.55008841 -0.16957454 0.74290019 2.9517932e-39
0.59941101 -0.1630756 0.74804765 5.6262105e-39
0.6018663 -0.16606714 0.74807495 5.6269462e-39
0.54715151 -0.15490685 0.7453084 2.952875e-39
0.55052572 -0.15051226 0.74005431 2.9517932e-39
0.59743619 -0.15983464 0.74674493 5.7183837e-39
0.54991323 -0.14998512 0.74310881 2.9517932e-39
0.55508935 -0.14828867 0.74381089 3.0443587e-39
0.56471407 -0.14626509 0.74358165 3.1365544e-39
0.57521003 -0.14503376 0.74525315 3.1365544e-39
0.58123493 -0.14845505 0.74965948 3.2291186e-39
0.45567495 0.048768576 0.74620771 6.730281e-39
0.45537955 0.054597806 0.74380267 7.2880594e-39
0.45842293 0.063253053 0.74461001 8.3064685e-39
0.46404886 0.068274863 0.74526441 7.7518794e-39
0.46837831 0.071176283 0.74343526 6.7306327e-39
0.47498918 0.075812906 0.74535865 7.7444329e-39
0.48451075 0.082860917 0.7452035 7.3756518e-39
0.4926492 0.088051051 0.74540734 8.3898009e-39
0.48121622 0.095656916 0.74216336 8.7610651e-39
0.49783066 0.09117189 0.74437422 8.4819993e-39
0.50510263 0.095528275 0.74497759 8.7585862e-39
0.51154023 0.099487655 0.74520421 9.2199245e-39
0.50628889 0.10335065 0.74580836 8.672377e-39
0.51667005 0.10265312 0.74490929 1.1155671e-38
0.52564138 0.10785811 0.74482954 1.1708845e-38
0.52447939 0.11745758 0.74794608 9.6822731e-39
0.5343706 0.11276498 0.74564677 8.0242064e-39
0.54272443 0.11620083 0.74776143 8.5801967e-39
0.53487462 0.12569937 0.74604005 9.5982667e-39
0.44372895 -0.39477044 0.75511414 6.2448278e-39
0.43742797 -0.3841643 0.75506538 7.6281027e-39
0.44032812 -0.38934958 0.7579748 7.35152e-39
0.43273073 -0.37492993 0.75481117 6.5217692e-39
0.41012052 -0.36183617 0.75176877 6.5221293e-39
0.42761835 -0.36497226 0.75514823 6.337022e-39
0.42252541 -0.35508668 0.75437897 7.2593244e-39
0.4175134 -0.34530321 0.75476706 6.4295749e-39
0.40967143 -0.33064726 0.75444758 6.3373807e-39
0.41261604 -0.33614424 0.7548418 6.4292162e-39
0.42206457 -0.33111539 0.7595256 7.3569346e-39
0.40645993 -0.32490087 0.75523394 6.2448278e-39
0.39935952 -0.31109148 0.75563264 6.2448278e-39
0.40189368 -0.31585723 0.75480813 6.2448278e-39
0.39676821 -0.30459324 0.75552279 6.9827417e-39
0.39529535 -0.2952655 0.75498194 7.0749359e-39
0.40474117 -0.29395461 0.75423723 6.2448278e-39
0.63927841 -0.29109102 0.75222385 3.0443531e-39
0.64513338 -0.2934168 0.75389481 2.7677649e-39
0.6551066 -0.29418674 0.75694185 2.951782e-39
0.66149199 -0.29326752 0.75915843 2.0298229e-39
0.39853653 -0.28939459 0.75776696 6.4292162e-39
0.40540013 -0.2859152 0.7543593 7.8197135e-39
0.41154951 -0.28117511 0.75428402 7.8193505e-39
0.63520604 -0.28395617 0.75488245 3.5053481e-39
0.64446777 -0.28511146 0.75786829 4.7046494e-39
0.65488261 -0.28506261 0.75846487 3.5979025e-39
0.66382813 -0.28330481 0.75706315 4.2436502e-39
0.41624993 -0.27796927 0.7547006 7.5406028e-39
0.42492566 -0.27427703 0.75476837 8.4683213e-39
0.43275133 -0.27114898 0.75501615 6.5232153e-39
0.62660974 -0.27385238 0.75497568 3.136553e-39
0.63443542 -0.27653992 0.75923622 4.5202511e-39
0.6460517 -0.27573061 0.75927305 4.9812461e-39
0.65569758 -0.27481747 0.75759375 5.0738047e-39
0.66383415 -0.27502087 0.7553097 5.0738047e-39
0.67081648 -0.27632812 0.75134879 4.8894078e-39
0.4376896 -0.26916197 0.75535464 6.2448278e-39
0.44198328 -0.26752669 0.75429738 6.2448278e-39
0.61777133 -0.26345682 0.75333083 3.4127867e-39
0.62282223 -0.26575288 0.75709742 3.5975437e-39
0.64775288 -0.26453713 0.75920999 4.9816076e-39
0.65519941 -0.26510349 0.7574122 5.0738047e-39
0.66308075 -0.2648949 0.75384682 5.0738033e-39
0.60851413 -0.25265342 0.75219411 3.22875e-39
0.61470598 -0.25579533 0.75576431 3.6897436e-39
0.62396085 -0.25567913 0.75935149 4.1510973e-39
0.63547611 -0.25259414 0.75944704 4.8894092e-39
0.64473635 -0.2545656 0.75798213 4.9816048e-39
0.65486372 -0.25495708 0.75557047 4.9816062e-39
0.6643768 -0.25618249 0.75104046 4.8894036e-39
0.59882742 -0.24086654 0.75134712 2.951796e-39
0.60563302 -0.24495679 0.75567675 3.5975465e-39
0.61433542 -0.24589705 0.75928807 4.4280513e-39
0.62557548 -0.24457024 0.75923657 4.9816034e-39
0.63528931 -0.24528156 0.7579391 4.9812447e-39
0.6448862 -0.24475072 0.75588125 4.9816048e-39
0.65348762 -0.24586886 0.75313848 4.889405e-39
0.59608322 -0.23400429 0.75519502 3.3209498e-39
0.60268509 -0.23640525 0.7587921 4.3358543e-39
0.61553293 -0.23425066 0.75910825 4.9816048e-39
0.62484223 -0.23507366 0.75789684 4.9816034e-39
0.63485873 -0.23536821 0.75593525 4.9816048e-39
0.64381832 -0.23569028 0.75378561 4.8894078e-39
0.65147007 -0.23771067 0.75034797 4.4284086e-39
0.58759713 -0.22344398 0.75391489 3.1361928e-39
0.59360743 -0.22568576 0.75828922 4.0592604e-39
0.6067884 -0.22533162 0.7593739 5.0737963e-39
0.61530024 -0.22503956 0.75777596 4.9816048e-39
0.62471539 -0.22507374 0.75596803 4.8890463e-39
0.63469428 -0.22541009 0.75364053 4.9812447e-39
0.64159101 -0.22619458 0.75104403 4.8893966e-39
0.57939667 -0.21169895 0.75227326 2.951796e-39
0.58494008 -0.21522577 0.75644064 3.6897436e-39
0.59172928 -0.21794038 0.7597425 4.7050081e-39
0.60496384 -0.21459448 0.75879204 5.0738033e-39
0.615031 -0.21526195 0.75633788 5.0738019e-39
0.62466943 -0.21523793 0.75409311 4.9816076e-39
0.63205546 -0.21653935 0.75154841 4.9812447e-39
0.5680902 -0.20189407 0.755072 2.8664275e-39
0.57566005 -0.20425035 0.75515324 3.4131469e-39
0.58405966 -0.20652553 0.75943542 4.5206141e-39
0.59776205 -0.20324904 0.75947958 5.0738033e-39
0.60491019 -0.20533735 0.75773805 5.0738033e-39
0.61522055 -0.20482035 0.75483835 5.0738033e-39
0.62389493 -0.20632951 0.75246161 4.9816048e-39
0.56692547 -0.19409332 0.75463045 3.22875e-39
0.57244492 -0.19715121 0.75809181 3.6901023e-39
0.59619021 -0.19447851 0.7589072 6.1801396e-39
0.60519648 -0.19485019 0.75647414 5.0738033e-39
0.61429685 -0.19575486 0.753685 5.0734417e-39
0.62113082 -0.19635779 0.75021982 5.3500062e-39
0.5582695 -0.18289943 0.75341737 3.0439944e-39
0.56252277 -0.18653354 0.75657386 3.3209484e-39
0.58747518 -0.18384936 0.75960892 1.4745163e-38
0.59476829 -0.18454434 0.75798732 1.3459529e-38
0.604325 -0.18562947 0.75509775 5.0734431e-39
0.61319369 -0.18708438 0.75172877 5.1656304e-39
0.54947603 -0.17199382 0.75053823 3.4131455e-39
0.55474555 -0.17514224 0.75542313 3.2287514e-39
0.57782054 -0.17241727 0.75949907 1.1606543e-38
0.58517712 -0.17488983 0.75841206 1.0403308e-38
0.59475982 -0.17518805 0.75619292 1.2995649e-38
0.60351646 -0.17637053 0.75232971 4.8894064e-39
0.54762912 -0.1643451 0.75340295 3.3209498e-39
0.55312407 -0.16409163 0.75813001 3.8744992e-39
0.56571329 -0.16276814 0.75926417 1.3365128e-38
0.57498366 -0.16462792 0.75822324 1.0867533e-38
0.5846715 -0.16507223 0.7564528 9.765202e-39
0.59395611 -0.16595565 0.75352645 5.718437e-39
0.54852515 -0.15586869 0.75194347 3.4131483e-39
0.55444342 -0.15468387 0.75609547 4.0585163e-39
0.56494707 -0.15522984 0.75749213 1.0141592e-38
0.57517076 -0.15478803 0.75520587 1.3451901e-38
0.58438766 -0.15610123 0.75350904 1.4843534e-38
0.59278333 -0.15993035 0.75180387 4.9812433e-39
0.55625844 -0.14808072 0.75454384 3.3209512e-39
0.56493753 -0.14717034 0.7553243 4.1510903e-39
0.57392502 -0.14723589 0.75250608 1.0235601e-38
0.45398349 0.049118679 0.75792813 5.9005203e-39
0.45249826 0.054469708 0.75602239 6.6402111e-39
0.45727211 0.063061759 0.75488406 8.3064685e-39
0.463783 0.067877449 0.75506032 7.9366224e-39
0.46842256 0.070998058 0.75386101 6.915031e-39
0.47480837 0.075475492 0.7551654 1.1524454e-38
0.48124799 0.079878606 0.75598687 1.1617009e-38
0.48527998 0.082690783 0.75473917 1.0325911e-38
0.49325016 0.087653518 0.7550112 9.9571266e-39
0.49835879 0.090791315 0.75523496 1.0141519e-38
0.50472683 0.094681121 0.75544852 9.4961457e-39
0.51148033 0.09886691 0.75449479 9.4043088e-39
0.51684827 0.1021307 0.75462419 9.6801474e-39
0.52509254 0.10709827 0.75470012 9.3116815e-39
0.534361 0.1128345 0.75553745 9.0382798e-39
0.54327315 0.11798072 0.75466412 8.5812547e-39
0.44326571 -0.39464468 0.76485288 7.0792674e-39
0.43726599 -0.38449997 0.76526779 7.2640202e-39
0.44048446 -0.38998252 0.76692021 1.078293e-38
0.42990172 -0.37050933 0.76869237 8.095929e-39
0.43240127 -0.37542358 0.76500469 6.8012427e-39
0.42741203 -0.3650912 0.76507032 7.5420462e-39
0.41978472 -0.35025144 0.76322711 6.2448278e-39
0.4224208 -0.35542053 0.76514643 7.3558528e-39
0.41703212 -0.34512809 0.7649644 7.2640187e-39
0.40941823 -0.3307544 0.76533496 6.3377436e-39
0.41208202 -0.33579105 0.76493496 7.2643789e-39
0.40620434 -0.3245261 0.76488322 7.6346019e-39
0.41943991 -0.32822514 0.76721263 7.6346005e-39
0.39952764 -0.31090218 0.76474124 7.7267976e-39
0.40173787 -0.31585419 0.7652424 7.8197135e-39
0.39780197 -0.30497569 0.76501262 6.4302994e-39
0.40456161 -0.30802572 0.76536596 7.9119063e-39
0.39555699 -0.29445642 0.76438892 6.7058003e-39
0.39760035 -0.28867 0.76561779 6.7979931e-39
0.4051387 -0.28412151 0.76487619 7.171463e-39
0.41121513 -0.28060338 0.76485515 7.6346019e-39
0.65991539 -0.28472441 0.76029617 2.1220199e-39
0.66208971 -0.28653365 0.76046813 4.7034989e-39
0.39891872 -0.27108598 0.76644659 7.4491303e-39
0.41573039 -0.27798685 0.76487124 6.2448278e-39
0.42483681 -0.27403808 0.76522297 6.9856326e-39
0.43212998 -0.27097377 0.76448852 9.0236531e-39
0.63505298 -0.271943 0.76032007 4.8890463e-39
0.64260924 -0.27157068 0.76024318 4.9816062e-39
0.43726915 -0.26880127 0.76557827 6.3377422e-39
0.44169506 -0.26706958 0.76494181 6.2448278e-39
0.62741965 -0.26382136 0.76064599 4.6128097e-39
0.63491285 -0.2650997 0.76104832 4.7972094e-39
0.64238161 -0.26543695 0.76036566 4.981609e-39
0.61793029 -0.25181985 0.76055753 4.4280541e-39
0.62498093 -0.2552664 0.76067847 4.7050095e-39
0.63408291 -0.25703204 0.7605167 4.8894078e-39
0.61481917 -0.24519946 0.76057637 4.7050095e-39
0.62133688 -0.24905875 0.76021636 4.9816034e-39
0.60697186 -0.23406574 0.76036382 4.6124482e-39
0.61132389 -0.23761119 0.76040965 4.9812433e-39
0.59837741 -0.22313021 0.76023275 4.7050081e-39
0.60313267 -0.22572631 0.76035768 4.8894064e-39
0.6236676 -0.22745924 0.76730239 4.7972094e-39
0.5893926 -0.21034859 0.76000798 4.797208e-39
0.59596509 -0.21503042 0.76037443 4.797208e-39
0.57888901 -0.20059735 0.76019704 4.889405e-39
0.58707041 -0.20360288 0.76083237 5.2578218e-39
0.59339315 -0.20575179 0.7603274 4.7972094e-39
0.56885165 -0.19270109 0.76675963 9.9503177e-39
0.57556045 -0.1938383 0.76117289 4.612451e-39
0.5850454 -0.19521534 0.76076776 6.8251363e-39
0.59152496 -0.19714807 0.76033682 4.9816048e-39
0.6154061 -0.19222188 0.76827532 4.7968464e-39
0.56646556 -0.18425702 0.76163101 4.1514546e-39
0.57478875 -0.1851223 0.76159161 9.9590366e-39
0.58320528 -0.18590181 0.76053876 1.7700843e-38
0.59577918 -0.18489969 0.76338005 1.41016e-38
0.55833471 -0.1730089 0.76115328 4.3358403e-39
0.56489301 -0.17517932 0.76177776 1.171036e-38
0.5742327 -0.17571628 0.76094866 1.6132805e-38
0.5807845 -0.17963167 0.76036716 1.41016e-38
0.55684638 -0.16685754 0.76085687 7.8385371e-39
0.56415969 -0.16702859 0.7607224 1.6869997e-38
0.57064843 -0.16880155 0.76031989 1.4380713e-38
0.58236313 -0.16987582 0.76979768 1.060367e-38
0.45584995 0.047405303 0.76439166 6.2693028e-39
0.46112618 0.046158165 0.76658684 5.8083247e-39
0.44586307 0.059366889 0.76236844 1.0325532e-38
0.45247611 0.054942612 0.76556265 6.4558199e-39
0.45668378 0.062524118 0.7650528 8.3061098e-39
0.46347666 0.067546487 0.76524371 8.1217213e-39
0.46852005 0.070992738 0.76572049 7.6536554e-39
0.47525725 0.075425081 0.76536536 1.069469e-38
0.48135442 0.07942377 0.76493776 9.9571182e-39
0.48627931 0.082569957 0.76508605 9.5879545e-39
0.49333304 0.087075241 0.76511914 9.2194957e-39
0.49833858 0.090242483 0.7643373 8.9425375e-39
0.50444889 0.094075553 0.76523674 8.9457339e-39
0.51221466 0.098941587 0.76490033 9.2241032e-39
0.51747596 0.10216583 0.76515508 8.8578374e-39
0.52567166 0.10722516 0.7652967 8.3064685e-39
0.53491658 0.11290074 0.76545238 8.3064685e-39
0.54196656 0.11718275 0.76499391 8.3064685e-39
0.44339672 -0.39487803 0.77538991 7.8200722e-39
0.43740886 -0.38439348 0.77472365 6.8937971e-39
0.44028249 -0.38937876 0.77509761 8.2824909e-39
0.42983878 -0.37053502 0.77556562 6.2448278e-39
0.43233261 -0.37521386 0.77497393 8.0970178e-39
0.41285595 -0.36057627 0.77099133 6.5224936e-39
0.42703146 -0.36501104 0.77517068 7.3565745e-39
0.40531376 -0.3535524 0.77384353 7.4491303e-39
0.41906324 -0.35281849 0.7747786 9.3013203e-39
0.42206714 -0.35544279 0.77488112 7.8197121e-39
0.41667837 -0.34514955 0.77520585 8.189212e-39
0.4093892 -0.33105591 0.77568161 9.3942362e-39
0.41195008 -0.33601582 0.77515852 7.6335187e-39
0.40643176 -0.32526338 0.77456099 8.0973808e-39
0.39955157 -0.31123024 0.77505559 7.2636586e-39
0.40185419 -0.31628257 0.77485842 8.0973808e-39
0.39761141 -0.30504647 0.7743389 6.2448278e-39
0.39501747 -0.29366586 0.77485514 6.9827417e-39
0.39831308 -0.28893545 0.77485585 6.2448278e-39
0.40468454 -0.28471556 0.77496445 7.3569346e-39
0.41093549 -0.28073418 0.77567464 9.302042e-39
0.41601625 -0.27807161 0.77509612 9.9488492e-39
0.42492428 -0.27406627 0.7752983 8.4686814e-39
0.43201047 -0.2709229 0.7750442 7.6342404e-39
0.43700004 -0.26875553 0.77535439 6.2451879e-39
0.44153908 -0.26680636 0.77536869 6.2448278e-39
0.65460044 -0.25885621 0.7721867 2.7868057e-39
0.57892907 -0.20777389 0.77056384 4.9812461e-39
0.60277152 -0.20541826 0.77326649 4.889405e-39
0.59144151 -0.19483642 0.77080667 3.22875e-39
0.4472439 0.04991027 0.77235729 8.398304e-39
0.45363936 0.048570532 0.77520657 5.9927159e-39
0.45457157 0.054568835 0.77485067 6.5487273e-39
0.46706089 0.055547301 0.77007419 1.1617009e-38
0.44816932 0.068375386 0.77734506 7.0107677e-39
0.4574019 0.061966486 0.77479011 8.3986627e-39
0.46417972 0.066685535 0.77597123 8.8581961e-39
0.46865585 0.070124447 0.77395296 7.9294407e-39
0.4751496 0.074430712 0.7747761 8.6691526e-39
0.48169285 0.078947105 0.77456206 9.2241032e-39
0.48596349 0.08180593 0.77510333 8.8571199e-39
0.49408212 0.087137997 0.77479762 8.398304e-39
0.49975476 0.090896338 0.77812612 8.3064699e-39
0.50496018 0.094240829 0.77498722 8.3064685e-39
0.51182181 0.098519482 0.77428454 8.3064685e-39
0.51651752 0.10139617 0.77520782 8.3064685e-39
0.52487761 0.10631642 0.77512729 8.3064685e-39
0.53550327 0.11234669 0.77466244 8.3064685e-39
0.54275024 0.11653975 0.77480841 8.398304e-39
0.44333351 -0.39521062 0.78488952 7.3562144e-39
0.4369975 -0.38438854 0.78462833 7.0789086e-39
0.44012541 -0.38971275 0.78750259 6.8937985e-39
0.42672086 -0.37266925 0.78430969 7.0778254e-39
0.43232206 -0.37545836 0.78496009 7.1714644e-39
0.42684609 -0.36517271 0.7851907 7.3569346e-39
0.41969442 -0.3513689 0.78520066 7.8197121e-39
0.42210135 -0.35600209 0.78509808 6.6157711e-39
0.41638806 -0.34493601 0.78499508 6.5228538e-39
0.40928784 -0.33115953 0.78591293 6.3377436e-39
0.41180414 -0.33602554 0.78520799 6.4306609e-39
0.40607408 -0.32486251 0.78446561 7.2640187e-39
0.39933866 -0.3124449 0.78434914 7.0731479e-39
0.401683 -0.31609038 0.78519034 6.9859927e-39
0.39605227 -0.30512792 0.78530347 6.2448278e-39
0.3865203 -0.29500568 0.78714693 6.8930754e-39
0.39504334 -0.29318133 0.78537261 6.8901874e-39
0.39891419 -0.28910834 0.78469843 6.2448278e-39
0.4048858 -0.28473201 0.78533858 7.6346005e-39
0.41143912 -0.28058347 0.78611124 6.8930754e-39
0.41615584 -0.27852848 0.78466505 6.5224936e-39
0.42486292 -0.27506548 0.78498566 8.097378e-39
0.4335275 -0.27153796 0.78501385 7.1711015e-39
0.43861017 -0.26939067 0.78467995 6.2448278e-39
0.44195536 -0.26798183 0.78468847 6.3366632e-39
0.44440228 -0.25971544 0.78818202 6.3366632e-39
0.45665491 0.048035804 0.78356826 7.2834548e-39
0.46211094 0.048217751 0.78685528 6.9146722e-39
0.47062156 0.047097404 0.7853632 8.9468437e-39
0.45577562 0.055746615 0.78516465 7.4728094e-39
0.45947653 0.06138197 0.78073829 8.859994e-39
0.464169 0.0653359 0.78480965 8.3068272e-39
0.46976537 0.070854589 0.78896075 8.3064699e-39
0.47466835 0.074112803 0.78511977 8.3064685e-39
0.48190403 0.078981802 0.78542614 8.3064685e-39
0.47841564 0.0831552 0.78191787 9.7741269e-39
0.48716751 0.082464419 0.78512806 8.3064685e-39
0.49439472 0.087285824 0.78478056 8.3064685e-39
0.49918491 0.090413913 0.7853725 8.3064685e-39
0.50544709 0.094310716 0.78532481 8.3064685e-39
0.51282406 0.098912135 0.78541327 8.4901381e-39
0.51760131 0.10184482 0.78510475 8.8578374e-39
0.52473378 0.10616574 0.78519559 9.5928745e-39
0.53075457 0.10964193 0.78461194 1.0052409e-38
0.53515744 0.11214335 0.78468943 1.0603418e-38
0.54178524 0.11578487 0.78390682 1.0971117e-38
0.44268686 -0.39479712 0.79497254 7.0749359e-39
0.43706912 -0.38505197 0.79516113 6.7057989e-39
0.42954493 -0.37108126 0.79651493 7.5359085e-39
0.43204781 -0.37580734 0.79490817 6.6136047e-39
0.4263289 -0.36472064 0.79475909 6.5214104e-39
0.41950157 -0.35153794 0.79498601 6.2448278e-39
0.42199484 -0.35635236 0.79518503 6.4292162e-39
0.43693817 -0.35441601 0.799972 6.6154095e-39
0.41609415 -0.34502131 0.79498357 6.4292162e-39
0.40904301 -0.33148479 0.79551446 6.337022e-39
0.41161242 -0.33640152 0.79498136 6.337022e-39
0.40584114 -0.32514393 0.7951259 6.4292162e-39
0.39908099 -0.31187525 0.7944535 6.5214104e-39
0.40170252 -0.31671309 0.79520661 6.7050828e-39
0.39568245 -0.30538705 0.79507107 6.6139634e-39
0.39524236 -0.294155 0.7952311 6.7979945e-39
0.39992628 -0.28960428 0.79420942 6.2448278e-39
0.40467459 -0.28543299 0.79510093 7.5420462e-39
0.41171727 -0.28074619 0.79507035 6.2448278e-39
0.41672683 -0.27869183 0.79498899 7.356213e-39
0.42492211 -0.27521527 0.79476714 8.0055439e-39
0.43342927 -0.27159497 0.79315245 6.2448278e-39
0.44456092 -0.27111357 0.79398894 8.8162272e-39
0.43726653 -0.2683557 0.79646146 5.9721967e-39
0.44178915 -0.26873168 0.79302692 7.5319666e-39
0.45755515 0.048462342 0.79704684 5.9005203e-39
0.46174565 0.047058113 0.79618347 4.6097815e-39
0.45543769 0.054999202 0.79452318 6.8263792e-39
0.45994622 0.060984652 0.79210168 8.3064699e-39
0.46430379 0.065357983 0.79498982 8.3061098e-39
0.46973765 0.070608027 0.79437751 8.3064685e-39
0.47490907 0.073989004 0.79566503 8.3064685e-39
0.48129994 0.078471452 0.79501575 8.4901381e-39
0.48689967 0.082237445 0.7951526 8.8578374e-39
0.49484041 0.087314822 0.79512739 9.68471e-39
0.4991228 0.090073667 0.79084796 8.3064699e-39
0.50459009 0.093595661 0.79548019 1.0787446e-38
0.51202679 0.098324902 0.7946381 1.1154787e-38
0.51701367 0.10144041 0.79518062 1.1062951e-38
0.52490741 0.10626222 0.79509932 1.0234648e-38
0.53125995 0.10262723 0.79922372 9.7751414e-39
0.53516668 0.11205143 0.79334491 9.6836394e-39
0.54378361 0.11580358 0.79295897 8.8553389e-39
0.55475873 0.11766434 0.79950237 4.3248793e-39
0.43982565 -0.3903417 0.80512178 6.2448278e-39
0.44271556 -0.39532819 0.80514431 6.2448278e-39
0.45926285 -0.3999055 0.80547142 6.2448278e-39
0.43684062 -0.38513854 0.80493873 6.2448278e-39
0.4294377 -0.37147367 0.80558103 6.337022e-39
0.43217432 -0.37673929 0.80530381 6.2448278e-39
0.44500783 -0.37592092 0.80534494 6.8905475e-39
0.42613918 -0.36502621 0.80487037 6.2451865e-39
0.41906771 -0.35158187 0.80512255 6.7979931e-39
0.42178586 -0.35665789 0.80514199 6.2448278e-39
0.41543391 -0.3447358 0.80514789 6.7979931e-39
0.40904614 -0.33245787 0.8049379 6.5217692e-39
0.41140214 -0.33706754 0.80477637 6.5214104e-39
0.40542421 -0.32531068 0.80475366 6.4292162e-39
0.39866641 -0.31211132 0.80376589 6.7061576e-39
0.40122998 -0.31727254 0.80524909 6.4292162e-39
0.39434063 -0.30426544 0.80582273 6.2451865e-39
0.39609689 -0.29523519 0.80441284 6.337022e-39
0.40074745 -0.29060242 0.80648053 6.2448278e-39
0.40523717 -0.28557524 0.80456311 8.1902939e-39
0.41122007 -0.28065851 0.80518317 7.541686e-39
0.43918833 -0.28058887 0.80586004 6.9798719e-39
0.41636217 -0.27783641 0.80546808 8.2824909e-39
0.42439985 -0.27290428 0.80593479 7.9119077e-39
0.42926282 -0.26971346 0.80603808 6.2448278e-39
0.43375385 -0.26831797 0.80622888 6.6136061e-39
0.45655918 0.048899326 0.80572617 1.244677e-38
0.46110854 0.046611663 0.8051365 5.5317378e-39
0.45640668 0.054589011 0.8053115 1.0973386e-38
0.48032615 0.059263177 0.80644941 9.3124649e-39
0.45862293 0.061141245 0.80675048 1.0977227e-38
0.46488687 0.065303832 0.80684215 1.2446225e-38
0.4704414 0.068650819 0.80933899 1.2996516e-38
0.48640299 0.064929888 0.80868268 9.8656429e-39
0.49314603 0.068177536 0.80779362 9.589765e-39
0.47493029 0.072697558 0.80560613 1.1615758e-38
0.48279184 0.077218547 0.80676401 1.1616844e-38
0.49307472 0.071046129 0.80975044 9.219563e-39
0.50482297 0.074407429 0.80835915 1.134715e-38
0.51157409 0.07888744 0.80779648 1.3933939e-38
0.46966264 0.083077207 0.80719972 8.4908584e-39
0.48694909 0.081270263 0.80513698 1.1984894e-38
0.49460465 0.085568734 0.80636168 1.0330079e-38
0.50195032 0.088697769 0.80894041 7.4696159e-39
0.51654792 0.084126949 0.80833638 1.4119396e-38
0.52421194 0.087809354 0.80740875 1.4212653e-38
0.50540316 0.092861399 0.80591333 8.3004079e-39
0.51352215 0.097508989 0.8066507 6.6391363e-39
0.52489042 0.0915071 0.80928856 1.393607e-38
0.53485256 0.095880896 0.80743921 1.4213013e-38
0.54128039 0.098227426 0.80676138 1.4120819e-38
0.51735234 0.10078672 0.80370307 6.5480113e-39
0.52531129 0.10451762 0.8049463 5.9930691e-39
0.53405589 0.10758588 0.80631673 7.1008333e-39
0.54474628 0.10272235 0.80882901 1.1715865e-38
0.55109847 0.10655314 0.8096835 6.1648164e-39
0.53740811 0.11222997 0.80405074 6.0849116e-39
0.54259861 0.11443375 0.80636513 5.9927159e-39
0.55163795 0.11427648 0.80702645 5.2453867e-39
0.43973178 -0.39049262 0.8156985 6.2448278e-39
0.44273514 -0.39571932 0.81498784 6.2448278e-39
0.43653443 -0.38489085 0.81521839 6.2448278e-39
0.42921707 -0.37144557 0.81502956 6.2448278e-39
0.43163213 -0.3761836 0.8155117 6.2448278e-39
0.42595875 -0.36499703 0.81459051 6.2448278e-39
0.41913265 -0.35185552 0.8149662 6.2448278e-39
0.42181206 -0.35687318 0.81510979 6.2448278e-39
0.39944953 -0.34574953 0.81832302 6.7076038e-39
0.41549179 -0.34512693 0.81491178 6.2448278e-39
0.4086073 -0.33229491 0.81473416 6.2448278e-39
0.41139689 -0.33751658 0.81571043 6.2448278e-39
0.40472153 -0.32486445 0.81531149 6.2448278e-39
0.39868277 -0.31250504 0.81517708 6.2448278e-39
0.40129644 -0.31739181 0.81597978 6.5203342e-39
0.39551863 -0.30466285 0.81531221 6.2448278e-39
0.38809758 -0.29242182 0.81098801 7.8197107e-39
0.39433885 -0.29512578 0.81513977 6.2448278e-39
0.39822206 -0.28856805 0.81763989 6.2451865e-39
0.40494472 -0.28454733 0.81524408 7.5413217e-39
0.41125086 -0.28071105 0.81518757 8.7441795e-39
0.41618267 -0.27782398 0.81507438 7.9108217e-39
0.4248935 -0.27337724 0.81489962 7.4473282e-39
0.43218729 -0.27068612 0.81459844 6.4288575e-39
0.43648222 -0.26876542 0.81436259 7.4437129e-39
0.44051182 -0.26760978 0.81259495 6.3366632e-39
0.45934954 0.049443543 0.81158566 9.6809013e-39
0.46196237 0.049324136 0.81067771 8.9429761e-39
0.45895374 0.054623768 0.81230652 1.1799879e-38
0.46418461 0.056102477 0.8133567 1.5762366e-38
0.47125992 0.058451205 0.81385249 1.4936907e-38
0.46642077 0.062131763 0.81100363 1.6499538e-38
0.47422087 0.065060772 0.81271851 1.4201514e-38
0.48274118 0.066656485 0.81222332 1.0419171e-38
0.47741917 0.071123831 0.81183571 1.2545609e-38
0.48524565 0.074431412 0.81220406 9.5003944e-39
0.49480829 0.075849175 0.81334531 8.9433334e-39
0.50321764 0.077540517 0.81332558 1.0050739e-38
