# .PCD v0.7 - Point Cloud Data file format
VERSION 0.7
FIELDS x y z rgb
SIZE 4 4 4 4
TYPE F F F F
COUNT 1 1 1 1
WIDTH 988
HEIGHT 1
VIEWPOINT 0 0 0 1 0 0 0
POINTS 988
DATA ascii
2.1413798 1.9315382 -0.0016351111 5.1629553e-39
1.6674129 1.9683737 0.006986659 5.1629553e-39
1.7424551 1.9420986 0.0010254325 5.1629553e-39
1.800941 1.9660678 0.0044294423 5.1629553e-39
2.0080404 1.9538211 -0.0030829064 5.1629553e-39
2.1275542 2.0015259 -0.0015022147 5.1629553e-39
1.68581 1.9791275 0.0077453461 5.1629553e-39
1.7153059 1.9840462 0.0084137674 5.1629553e-39
1.8049285 1.9676052 0.0083256355 5.1629553e-39
1.8613039 1.9558183 -0.0065936018 5.1629553e-39
1.8429145 2.0223835 -0.0070052566 5.1629553e-39
1.8459262 1.9507287 0.0057137851 5.1629553e-39
1.9935399 1.971212 -0.0021814045 5.1629553e-39
2.1959369 2.0442977 0.0015542706 5.1629553e-39
1.646276 1.9812489 -0.0073149432 5.1629553e-39
1.73967 1.9826365 0.0062653478 5.1629553e-39
1.9370809 2.0185978 0.0012800806 5.1629553e-39
2.0304852 2.0416696 -0.0033621462 5.1629553e-39
1.9566022 2.0196207 0.0020945878 5.1629553e-39
1.9607111 2.0573928 7.2542593e-05 5.1629553e-39
1.7636507 2.0369806 -0.0057931286 5.1629553e-39
1.8112745 2.0653431 0.0075717517 5.1629553e-39
1.8516563 2.0552907 -0.0020019794 5.1629553e-39
1.8496664 2.0463078 -0.00075856858 5.1629553e-39
1.9046377 2.1336565 -0.003513936 5.1629553e-39
1.97241 2.0726967 -0.00086491136 5.1629553e-39
1.8547468 2.0715895 -0.0049456935 5.1629553e-39
2.0826471 2.0676756 7.3508795e-07 5.1629553e-39
2.0929368 2.1117282 -0.001156515 5.1629553e-39
1.8973327 2.1262221 -0.0038451701 5.1629553e-39
2.1026411 2.0987182 -0.0022669241 5.1629553e-39
1.8277533 2.1251523 -0.00084928487 5.1629553e-39
1.9715081 2.1461601 -0.0030937428 5.1629553e-39
1.8783081 2.1262407 -0.0060414649 5.1629553e-39
1.9319561 2.1451516 -0.0026538058 5.1629553e-39
1.901076 2.1332996 -0.0080846744 5.1629553e-39
2.0291014 2.207485 -0.0011736688 5.1629553e-39
2.0111406 2.1755269 -0.0043814536 5.1629553e-39
1.9439248 2.1581781 -0.0016876245 5.1629553e-39
1.9341506 2.1626375 -0.0060589318 5.1629553e-39
2.0858002 2.1830919 0.00058644579 5.1629553e-39
1.989983 2.2165537 -0.0021431078 5.1629553e-39
2.0015314 2.2036119 -0.004314045 5.1629553e-39
2.0769362 2.2765603 0.0014956278 5.1629553e-39
2.2380457 -2.3269284 0.00044812748 5.2551509e-39
2.0405715 -2.2061374 0.0018564935 5.2551509e-39
2.1706378 -2.1919558 -0.0012872593 5.2551509e-39
1.923511 -2.1431048 0.0019540535 5.2551509e-39
2.0069771 -2.1039796 0.0052480586 5.2551509e-39
1.9271355 -2.0885572 0.0062865042 5.2551509e-39
1.8873225 -2.0222261 0.0063547613 5.2551509e-39
2.006741 -2.1135912 -0.0034352024 5.2551509e-39
1.8680496 -2.0850649 0.00116211 5.2551509e-39
1.9148918 -2.0526164 -0.0037590978 5.2551509e-39
1.9650217 -2.0640001 0.0035689275 5.2551509e-39
2.0394537 -2.0804694 -0.00099942472 5.2551509e-39
2.0472562 -2.0829198 0.0025927785 5.2551509e-39
1.8530639 -2.0477874 0.0066556409 5.2551509e-39
1.8872813 -2.0769262 -0.0049943002 5.2551509e-39
2.1159761 -2.0127454 -0.00079006661 5.2551509e-39
1.7854862 -1.9841135 -0.0033826067 5.2551509e-39
1.8767235 -2.0499699 -0.0020588895 5.2551509e-39
1.9363565 -2.0324011 0.0042477706 5.2551509e-39
2.1116741 -2.0196631 0.00061357446 5.2551509e-39
1.7436059 -2.005553 0.0074380813 5.2551509e-39
1.7823895 -2.0033817 0.0060378322 5.2551509e-39
1.9129303 -1.9927855 -0.005506027 5.2551509e-39
2.0783021 -1.9958032 0.0015002083 5.2551509e-39
2.1296687 -2.0059891 -0.00098276522 5.2551509e-39
1.690943 -1.9768965 0.0037698955 5.2551509e-39
1.7193311 -1.9846269 -0.0045019737 5.2551509e-39
1.7532188 -2.0199769 -0.0061423732 5.2551509e-39
1.8608578 -1.9650718 0.0059427829 5.2551509e-39
1.9174404 -1.9483656 0.0044198767 5.2551509e-39
1.9402696 -1.9586791 0.0033739116 5.2551509e-39
2.0539327 -1.9776196 -0.0037014759 5.2551509e-39
2.0896254 -1.9734908 0.00053699565 5.2551509e-39
1.7271987 -1.9438335 -0.0077616698 5.2551509e-39
1.7746412 -1.9519843 0.0074632508 5.2551509e-39
1.8122661 -1.968257 0.007635124 5.2551509e-39
2.0331197 -1.9651526 -0.0046938434 5.2551509e-39
1.6425322 -1.9435838 -0.0027244347 5.2551509e-39
1.6887016 -1.9434109 -0.0010252605 5.2551509e-39
1.7189628 -1.9386889 -0.0084708743 5.2551509e-39
1.6991489 -1.9259791 0.0019244056 5.2551509e-39
1.8089086 -1.9499142 0.0050688242 5.2551509e-39
1.8419907 -1.9910903 -0.0028809437 5.2551509e-39
1.8498436 -1.9226683 0.0032464906 5.2551509e-39
1.8378073 -1.9831623 -0.00051695958 5.2551509e-39
2.0051076 -1.9329782 0.0015324089 5.2551509e-39
2.0072873 -1.9668249 -0.0027161259 5.2551509e-39
2.0743761 -1.9819864 0.0011755023 5.2551509e-39
1.6964517 -1.8982414 0.0059967386 5.2551509e-39
1.7614528 -1.9369853 0.0067333179 5.2551509e-39
1.8580471 -1.9536442 0.0028235235 5.2551509e-39
1.9897953 -1.9432536 -0.00079691131 5.2551509e-39
1.6017977 -1.9010301 -0.0014303842 5.2551509e-39
1.6394336 -1.8916339 0.0086019635 5.2551509e-39
1.7463394 -1.8969142 0.0062863887 5.2551509e-39
1.5330861 -1.8817456 -0.0025577543 5.2551509e-39
1.5911672 -1.8732913 0.0046321247 5.2551509e-39
1.6791749 -1.9008912 0.0029511338 5.2551509e-39
1.8074096 -1.8697644 -0.0072045443 5.2551509e-39
1.851252 -1.8853619 -0.0041244086 5.2551509e-39
1.8355364 -1.8690313 -0.0016812787 5.2551509e-39
1.951424 -1.8851156 0.0040448098 5.2551509e-39
2.001039 -1.8266151 -0.0031586292 5.2551509e-39
1.5023941 -1.8218457 -0.0012924006 5.2551509e-39
1.587504 -1.8997054 -0.007680608 5.2551509e-39
1.6061399 -1.8998941 -0.0070903115 5.2551509e-39
1.6117482 -1.8641925 0.0055732201 5.2551509e-39
1.6663785 -1.807296 -0.0018715155 5.2551509e-39
1.6931953 -1.8990543 -0.0093915416 5.2551509e-39
1.7274607 -1.8724524 -0.00028000685 5.2551509e-39
1.89555 -1.8472167 0.0063665467 5.2551509e-39
1.9231876 -1.8947132 -0.0041948166 5.2551509e-39
2.0628812 -1.9128165 0.00023588141 5.2551509e-39
2.0868263 -1.8744177 0.0013843291 5.2551509e-39
2.1161797 -1.8418434 -0.0029957599 5.2551509e-39
1.4916595 -1.8421469 -0.0048420099 5.2551509e-39
1.5145241 -1.8532975 -0.0036586903 5.2551509e-39
1.4923604 -1.8207581 -0.0086784 5.2551509e-39
1.558033 -1.8612033 0.0047713025 5.2551509e-39
1.621822 -1.8453354 0.0091484264 5.2551509e-39
1.8271087 -1.8250995 -0.0076946076 5.2551509e-39
1.8328773 -1.8531632 -0.0072418419 5.2551509e-39
1.8774079 -1.8502272 0.0014887566 5.2551509e-39
1.9834692 -1.8668123 -0.0016402045 5.2551509e-39
1.5000085 -1.8330356 0.0048655178 5.2551509e-39
1.5852224 -1.7768385 0.0028442866 5.2551509e-39
1.5559067 -1.8254319 -0.0097965561 5.2551509e-39
1.7991586 -1.8323895 0.0040655821 5.2551509e-39
1.8552852 -1.7873336 -0.0052985749 5.2551509e-39
1.8694868 -1.837002 -0.0059479154 5.2551509e-39
1.9270594 -1.8320074 0.001379148 5.2551509e-39
1.9149436 -1.8954271 -0.0039288341 5.2551509e-39
1.9614701 -1.859242 0.00060251757 5.2551509e-39
1.9418789 -1.8098202 -0.0020140181 5.2551509e-39
2.021208 -1.7820385 -0.0001289202 5.2551509e-39
2.0344326 -1.8259305 0.0036715125 5.2551509e-39
1.4261838 -1.8106996 0.0021187041 5.2551509e-39
1.6005633 -1.8129331 -0.006297166 5.2551509e-39
1.6219609 -1.8118523 0.0066186036 5.2551509e-39
1.7978384 -1.8220842 0.0031155481 5.2551509e-39
1.8371878 -1.8171921 -0.00080592325 5.2551509e-39
1.485705 -1.7592335 0.0024570441 5.2551509e-39
1.5095644 -1.8161689 -0.0031167713 5.2551509e-39
1.5322754 -1.7915492 -0.004103981 5.2551509e-39
1.6034538 -1.7795612 0.0048508258 5.2551509e-39
1.5839614 -1.7885543 0.0093696862 5.2551509e-39
1.7236338 -1.7889347 -0.0044368566 5.2551509e-39
1.7819437 -1.7894597 -0.0035158554 5.2551509e-39
1.9788519 -1.8036722 0.00271406 5.2551509e-39
2.0334337 -1.7481235 -0.00068034203 5.2551509e-39
2.0801773 -1.8263458 -0.0026828244 5.2551509e-39
1.4726961 -1.78186 0.0017955867 5.2551509e-39
1.4224354 -1.7397481 0.0028189616 5.2551509e-39
1.472937 -1.8166338 -0.010391224 5.2551509e-39
1.4761394 -1.7563351 0.0044475528 5.2551509e-39
1.5762073 -1.79576 -0.0040168655 5.2551509e-39
1.5478948 -1.7641356 0.0050799106 5.2551509e-39
1.6257443 -1.7556478 -0.0019716041 5.2551509e-39
1.6567326 -1.8023744 0.009413396 5.2551509e-39
1.8242348 -1.7430617 -0.0058121029 5.2551509e-39
1.8783616 -1.747556 -0.0063239383 5.2551509e-39
1.8905408 -1.7193404 -0.00038505514 5.2551509e-39
1.9674147 -1.7802167 0.0027879104 5.2551509e-39
1.9708332 -1.7838818 0.0033136078 5.2551509e-39
2.0672989 -1.706421 -0.00097418966 5.2551509e-39
2.0798526 -1.7690632 -0.00070693571 5.2551509e-39
1.3661182 -1.7367301 0.0038825246 5.2551509e-39
1.379528 -1.7112989 0.0039648027 5.2551509e-39
1.5214759 -1.7752762 -0.0096964855 5.2551509e-39
1.6389256 -1.7505343 -0.0072002229 5.2551509e-39
1.6530367 -1.8050439 -0.0025594227 5.2551509e-39
1.6834027 -1.7732699 -0.0072295982 5.2551509e-39
1.748858 -1.7711043 -0.0081278048 5.2551509e-39
1.8039008 -1.7619328 -0.0037843906 5.2551509e-39
1.8536221 -1.7458649 -0.0065944865 5.2551509e-39
1.3816886 -1.7102334 0.0081111044 5.2551509e-39
1.3315361 -1.7280573 0.0010432217 5.2551509e-39
1.4224076 -1.7517277 -0.0017047626 5.2551509e-39
1.3937107 -1.7272257 -0.001957319 5.2551509e-39
1.4303232 -1.7288753 0.0091873268 5.2551509e-39
1.5432707 -1.7296271 0.00031409608 5.2551509e-39
1.5437599 -1.7031939 0.0027773422 5.2551509e-39
1.5683974 -1.6676731 0.007197557 5.2551509e-39
1.5289903 -1.7003459 -0.0081967646 5.2551509e-39
1.6005414 -1.7394342 -0.0062111453 5.2551509e-39
1.6720498 -1.7159297 -0.0094738696 5.2551509e-39
1.7221708 -1.6980966 -0.0043499167 5.2551509e-39
1.7619516 -1.7314223 -0.0026252447 5.2551509e-39
1.8600252 -1.6920773 -0.00396707 5.2551509e-39
1.8872106 -1.6814349 0.00012571632 5.2551509e-39
1.9143406 -1.7560377 -0.0055234437 5.2551509e-39
2.0070193 -1.7328439 -0.0024605747 5.2551509e-39
1.3184611 -1.6988031 -0.0047076489 5.2551509e-39
1.4045768 -1.7733389 -0.0017562554 5.2551509e-39
1.6737021 -1.7006706 0.0033177796 5.2551509e-39
1.8014361 -1.7335074 -0.0041680019 5.2551509e-39
1.7933775 -1.7149472 -0.0044128336 5.2551509e-39
1.9355609 -1.7188258 -0.0014953651 5.2551509e-39
2.0038922 -1.7078568 -0.004848381 5.2551509e-39
1.2829468 -1.6958668 0.0088602146 5.2551509e-39
1.286099 -1.6798146 -0.0096910866 5.2551509e-39
1.3830303 -1.7137645 0.0069217365 5.2551509e-39
1.3557961 -1.7166708 -0.0038460889 5.2551509e-39
1.4751788 -1.7146215 0.0087774126 5.2551509e-39
1.6192087 -1.6763805 -0.0050008302 5.2551509e-39
1.7074246 -1.6660172 0.0005028047 5.2551509e-39
1.7529097 -1.7383658 0.0023832871 5.2551509e-39
1.7729011 -1.6969591 0.0035540995 5.2551509e-39
1.7788682 -1.677303 -0.0023317889 5.2551509e-39
1.9620545 -1.731058 -0.0046248101 5.2551509e-39
1.1682456 -1.6329527 0.0099758329 5.2551509e-39
1.2866852 -1.660305 0.0083160168 5.2551509e-39
1.3461891 -1.7269387 0.0047521172 5.2551509e-39
1.3928167 -1.6803983 0.0031371173 5.2551509e-39
1.3936267 -1.6868556 -0.0043161865 5.2551509e-39
1.5085001 -1.628232 0.0021746217 5.2551509e-39
1.5612034 -1.6737933 -0.007644868 5.2551509e-39
1.6673462 -1.6586084 -0.0061847428 5.2551509e-39
1.7650052 -1.6630139 0.0017693571 5.2551509e-39
1.8449363 -1.6239284 0.0032167467 5.2551509e-39
1.9527996 -1.6598842 0.0057242028 5.2551509e-39
1.2247947 -1.6554453 -0.0077322177 5.2551509e-39
1.2677366 -1.664983 -0.00071886991 5.2551509e-39
1.3116976 -1.6487911 -4.2781292e-05 5.2551509e-39
1.3892879 -1.6115391 -0.0025893634 5.2551509e-39
1.2976071 -1.6427763 -0.0020765206 5.2551509e-39
1.3279533 -1.6335076 -0.010697816 5.2551509e-39
1.3488009 -1.6902438 -0.002620311 5.2551509e-39
1.425561 -1.6373371 -0.0094015105 5.2551509e-39
1.4453422 -1.5865712 -0.00042213104 5.2551509e-39
1.5154589 -1.6722142 -0.0041385163 5.2551509e-39
1.5824611 -1.6471035 -0.0021877747 5.2551509e-39
1.6504927 -1.6456907 -0.0058142953 5.2551509e-39
1.6515542 -1.6508677 -0.0047969315 5.2551509e-39
1.8835742 -1.6335878 0.0049745371 5.2551509e-39
1.894936 -1.610571 0.0017479277 5.2551509e-39
2.1035388 -1.6620631 -2.5315565e-05 5.2551509e-39
1.1341985 -1.5932884 0.011567912 5.2551509e-39
1.1454113 -1.6143543 -0.0084998496 5.2551509e-39
1.2006253 -1.6129247 -0.0099465735 5.2551509e-39
1.2515913 -1.6503078 -0.0030962373 5.2551509e-39
1.2911614 -1.6372817 -0.0095087904 5.2551509e-39
1.4173996 -1.6058687 0.0110753 5.2551509e-39
1.471485 -1.6276724 0.0053505651 5.2551509e-39
1.5578713 -1.6161642 0.004529051 5.2551509e-39
1.5738782 -1.6250738 0.0065050963 5.2551509e-39
1.7228916 -1.6368792 -0.0068476126 5.2551509e-39
1.8566729 -1.6521602 0.0043643275 5.2551509e-39
1.9329081 -1.6338519 0.0015930505 5.2551509e-39
2.0228035 -1.6355623 -0.0019327743 5.2551509e-39
2.0391066 -1.5986794 0.0013960042 5.2551509e-39
1.1580887 -1.5716639 0.010938636 5.2551509e-39
1.1398596 -1.6128085 -0.0018090676 5.2551509e-39
1.1954008 -1.6389705 -0.00020647181 5.2551509e-39
1.2683061 -1.6162765 -0.0023952492 5.2551509e-39
1.2909297 -1.5741738 0.00439602 5.2551509e-39
1.4208084 -1.5945214 -0.010600556 5.2551509e-39
1.4745198 -1.5944784 0.0059659095 5.2551509e-39
1.4598917 -1.5822999 0.0044711251 5.2551509e-39
1.5268917 -1.6314732 -0.0004574144 5.2551509e-39
1.6401762 -1.6190929 0.0036051108 5.2551509e-39
1.9307745 -1.6063751 -0.001470356 5.2551509e-39
2.0415323 -1.5944288 -0.0020516571 5.2551509e-39
1.1487111 -1.5823773 0.0075423098 5.2551509e-39
1.1018171 -1.5399233 0.0029377453 5.2551509e-39
1.1584976 -1.5636101 -0.0054997406 5.2551509e-39
1.1969711 -1.5681381 0.0055988724 5.2551509e-39
1.2294909 -1.5966837 -0.010387729 5.2551509e-39
1.3590602 -1.5625898 0.0084859766 5.2551509e-39
1.4341328 -1.5743937 -0.00034337604 5.2551509e-39
1.4700924 -1.5477773 -0.0016976049 5.2551509e-39
1.488404 -1.6218534 -0.010339749 5.2551509e-39
1.5940834 -1.5998163 0.0017328573 5.2551509e-39
1.6378829 -1.5983593 0.007943145 5.2551509e-39
1.6681753 -1.5915637 0.0079189343 5.2551509e-39
1.7143263 -1.5967474 0.0008398252 5.2551509e-39
1.7675673 -1.6135902 -0.0021675627 5.2551509e-39
1.88209 -1.5999011 -0.0018089802 5.2551509e-39
2.1085835 -1.561675 0.00033425353 5.2551509e-39
1.0740681 -1.5213552 -0.0010901798 5.2551509e-39
1.0899371 -1.5857869 0.0059844861 5.2551509e-39
1.0688546 -1.5705715 0.0068176412 5.2551509e-39
1.1337342 -1.585323 0.011583721 5.2551509e-39
1.1582286 -1.569755 0.0027819704 5.2551509e-39
1.1865346 -1.5697936 0.010030096 5.2551509e-39
1.1716632 -1.5965261 -0.010207701 5.2551509e-39
1.2889334 -1.5819038 -0.0019087539 5.2551509e-39
1.3485074 -1.5968289 0.0016447406 5.2551509e-39
1.3726935 -1.5810589 0.0069607226 5.2551509e-39
1.4029377 -1.5404063 0.00043829039 5.2551509e-39
1.4589542 -1.5629498 0.0029816623 5.2551509e-39
1.4775554 -1.5490012 -0.0090368791 5.2551509e-39
1.5373421 -1.5833688 0.0032091881 5.2551509e-39
1.5423924 -1.6000762 -0.0055712583 5.2551509e-39
1.6348919 -1.5404694 0.005051312 5.2551509e-39
1.6823795 -1.56227 -0.0008690363 5.2551509e-39
1.8342526 -1.5690202 -0.0053254412 5.2551509e-39
1.8806106 -1.5987785 -0.0031478577 5.2551509e-39
1.929158 -1.5709955 -0.0053208652 5.2551509e-39
2.0214567 -1.5696679 -0.0011132942 5.2551509e-39
1.0593746 -1.5412009 0.0097420756 5.2551509e-39
1.1058127 -1.5725074 -0.0048105465 5.2551509e-39
1.1206023 -1.5561522 -0.0028074626 5.2551509e-39
1.1647636 -1.5273463 0.00066707365 5.2551509e-39
1.1577827 -1.5470672 0.0097213089 5.2551509e-39
1.2616626 -1.6064645 -0.0035833633 5.2551509e-39
1.316924 -1.5390285 0.00062546838 5.2551509e-39
1.398011 -1.5474718 0.011419499 5.2551509e-39
1.3919243 -1.5576679 -0.0099561922 5.2551509e-39
1.5773035 -1.4978955 -0.0014295094 5.2551509e-39
1.6068943 -1.5462732 -0.0092500458 5.2551509e-39
1.7194804 -1.5789691 0.0017855965 5.2551509e-39
1.7560194 -1.5982611 -0.0028853538 5.2551509e-39
1.8232663 -1.5377676 -0.0049751522 5.2551509e-39
1.9065794 -1.5224369 0.0033314766 5.2551509e-39
1.9533063 -1.5963356 0.0048591075 5.2551509e-39
1.937964 -1.5646467 -0.0047662994 5.2551509e-39
2.0518548 -1.5482458 -0.0036257636 5.2551509e-39
2.1088328 -1.5517508 -0.0019258067 5.2551509e-39
1.0550549 -1.5406793 -0.0067564598 5.2551509e-39
1.1191843 -1.4972671 -0.0059206774 5.2551509e-39
1.1095637 -1.5589037 -0.0003122419 5.2551509e-39
1.1329964 -1.5278287 0.010369943 5.2551509e-39
1.2034688 -1.4814291 0.00098191865 5.2551509e-39
1.3454551 -1.469251 0.0065288134 5.2551509e-39
1.3967237 -1.5228224 0.0077306032 5.2551509e-39
1.4859139 -1.5155987 0.0083391601 5.2551509e-39
1.5294865 -1.535861 -0.001052133 5.2551509e-39
1.5443556 -1.5411907 0.00050416688 5.2551509e-39
1.592034 -1.5188522 -0.0072895666 5.2551509e-39
1.5849315 -1.513652 0.0048413198 5.2551509e-39
1.683479 -1.5259321 0.0020836412 5.2551509e-39
1.8308169 -1.5012598 0.00071027887 5.2551509e-39
1.9236586 -1.5321183 0.0048782052 5.2551509e-39
2.0265388 -1.4881126 0.0039727115 5.2551509e-39
2.0807159 -1.5204126 -0.0021568947 5.2551509e-39
2.1034355 -1.5074294 0.0018426967 5.2551509e-39
0.98352921 -1.4920733 0.012403597 5.2551509e-39
1.0541829 -1.464079 0.0016747297 5.2551509e-39
1.0897245 -1.5013933 -0.010338972 5.2551509e-39
1.0933746 -1.4960612 -0.011487961 5.2551509e-39
1.1339608 -1.4918257 -0.00082151772 5.2551509e-39
1.1710827 -1.4898226 0.0017613422 5.2551509e-39
1.3483641 -1.5219197 0.0085807359 5.2551509e-39
1.3892034 -1.5063932 -0.010296317 5.2551509e-39
1.3832667 -1.5164158 -0.0082626576 5.2551509e-39
1.3844558 -1.481346 -0.0031383596 5.2551509e-39
1.4414452 -1.5469841 -0.0011852087 5.2551509e-39
1.4463247 -1.5468884 0.004116022 5.2551509e-39
1.4780837 -1.5120841 -0.0040318756 5.2551509e-39
1.4938233 -1.5031148 0.006979947 5.2551509e-39
1.5848293 -1.4887809 0.0029462981 5.2551509e-39
1.6078908 -1.5141187 0.0098607708 5.2551509e-39
1.5893182 -1.5140053 0.004469024 5.2551509e-39
1.7329901 -1.499349 -0.002424676 5.2551509e-39
1.815511 -1.5250186 0.0039649429 5.2551509e-39
1.860543 -1.5293173 0.0053089117 5.2551509e-39
1.9288996 -1.5501188 0.0058475304 5.2551509e-39
1.9758385 -1.5230966 0.00074109167 5.2551509e-39
2.0087111 -1.5410813 -0.0012103429 5.2551509e-39
1.2012944 -1.5185866 -0.012072369 5.2551509e-39
1.195647 -1.4594265 0.011701502 5.2551509e-39
1.2324296 -1.4631878 0.0070839049 5.2551509e-39
1.3036529 -1.4454578 0.006135982 5.2551509e-39
1.3671944 -1.4914778 0.0058883415 5.2551509e-39
1.3551856 -1.4863222 -0.0078743352 5.2551509e-39
1.3924189 -1.4665184 -0.0029154446 5.2551509e-39
1.4826627 -1.4854192 0.0043000951 5.2551509e-39
1.5293097 -1.4947202 0.0092946794 5.2551509e-39
1.579321 -1.5015711 0.0022847382 5.2551509e-39
1.6047765 -1.5130615 0.0077315588 5.2551509e-39
1.6212074 -1.4949801 -0.0056730164 5.2551509e-39
1.6611115 -1.476199 -0.00078382646 5.2551509e-39
1.7490038 -1.4951216 0.0020997829 5.2551509e-39
1.8052478 -1.5111839 0.0017880287 5.2551509e-39
2.0634818 -1.4973133 0.0027533483 5.2551509e-39
0.95152366 -1.4701734 -0.0059660738 5.2551509e-39
1.1278642 -1.4829084 0.010568285 5.2551509e-39
1.1187195 -1.5130688 -0.011007645 5.2551509e-39
1.231125 -1.4675026 -0.0021676118 5.2551509e-39
1.2505692 -1.4366887 0.0083226841 5.2551509e-39
1.2152524 -1.459337 -0.0060213106 5.2551509e-39
1.3029363 -1.4585878 -0.0032307222 5.2551509e-39
1.3677675 -1.439775 0.00039700125 5.2551509e-39
1.4201362 -1.4431742 0.0097616455 5.2551509e-39
1.4250453 -1.4404755 -0.008528945 5.2551509e-39
1.4524578 -1.45601 0.0093679596 5.2551509e-39
1.5409125 -1.4889369 -0.0046468247 5.2551509e-39
1.604369 -1.4761566 -0.0025075204 5.2551509e-39
1.7599695 -1.4602162 -0.0059456849 5.2551509e-39
1.8284392 -1.473482 -0.0072579789 5.2551509e-39
0.9685598 -1.4213265 -0.011671333 5.2551509e-39
0.96109843 -1.4312574 0.0083691636 5.2551509e-39
1.0447603 -1.4427159 -0.004714089 5.2551509e-39
1.0324868 -1.440565 -0.011483088 5.2551509e-39
1.0065522 -1.4758093 0.00070881378 5.2551509e-39
1.1674953 -1.4406544 -0.011815445 5.2551509e-39
1.1956666 -1.408957 -0.0051220502 5.2551509e-39
1.1914464 -1.4159437 0.0048361076 5.2551509e-39
1.3315443 -1.4544721 -0.0091213631 5.2551509e-39
1.30337 -1.391524 0.012048574 5.2551509e-39
1.4267019 -1.420712 -0.0036793817 5.2551509e-39
1.5090345 -1.5067735 0.00511831 5.2551509e-39
1.5427542 -1.4651535 0.0051206099 5.2551509e-39
1.635637 -1.4687933 -0.0063346829 5.2551509e-39
1.7595658 -1.4650108 0.0065405215 5.2551509e-39
1.7939279 -1.4716194 0.0011490535 5.2551509e-39
1.8932157 -1.4153078 0.0065781674 5.2551509e-39
1.9588697 -1.4483106 0.0010195647 5.2551509e-39
0.98595649 -1.4333752 0.011599149 5.2551509e-39
0.9836309 -1.4571022 0.0024130654 5.2551509e-39
1.0964925 -1.4567237 -0.00019065577 5.2551509e-39
1.1326956 -1.4074423 0.0092998501 5.2551509e-39
1.185516 -1.3983049 0.011919804 5.2551509e-39
1.3509433 -1.4018108 -0.00037622554 5.2551509e-39
1.3413701 -1.4286996 0.0074884943 5.2551509e-39
1.4638246 -1.3991175 0.0013565574 5.2551509e-39
1.5205123 -1.4520942 0.002616351 5.2551509e-39
1.5153369 -1.3963361 -0.010459403 5.2551509e-39
1.535502 -1.4186269 0.010094428 5.2551509e-39
1.5796324 -1.4483023 0.00024291548 5.2551509e-39
1.6730865 -1.4634969 -0.00033800697 5.2551509e-39
1.6894621 -1.4199396 -0.0013535818 5.2551509e-39
1.6886723 -1.3848839 -0.0050893938 5.2551509e-39
1.7536677 -1.4279211 0.0063842419 5.2551509e-39
1.814872 -1.4390199 0.0046693189 5.2551509e-39
1.8539901 -1.3929572 0.0064931558 5.2551509e-39
1.8800797 -1.4502797 -0.0022056694 5.2551509e-39
1.9742575 -1.4691365 -0.0039532725 5.2551509e-39
0.87958014 -1.3856091 -0.009808288 5.2551509e-39
0.8924495 -1.3831822 0.0036756331 5.2551509e-39
0.90973341 -1.4015161 -0.012776338 5.2551509e-39
0.94692487 -1.3986504 0.0014936368 5.2551509e-39
1.0200965 -1.4031847 0.0055831755 5.2551509e-39
1.0333215 -1.4519118 0.0041843145 5.2551509e-39
1.04879 -1.4010584 0.011453459 5.2551509e-39
1.0598804 -1.3829451 0.0071627358 5.2551509e-39
1.1512979 -1.43757 0.0016902506 5.2551509e-39
1.1459473 -1.4269711 0.00067033741 5.2551509e-39
1.2171216 -1.3832854 0.0028342127 5.2551509e-39
1.2782519 -1.4188448 0.0051673753 5.2551509e-39
1.4025204 -1.4022409 0.0063596684 5.2551509e-39
1.5892504 -1.4519354 -0.0081229312 5.2551509e-39
1.6862844 -1.3813394 -0.0034498684 5.2551509e-39
1.7672098 -1.4231913 -0.00025122031 5.2551509e-39
1.7802269 -1.3848473 -0.0055439305 5.2551509e-39
1.8291782 -1.4316193 0.0074186646 5.2551509e-39
2.050983 -1.3869843 0.00094895525 5.2551509e-39
0.93224537 -1.3615078 -0.011971032 5.2551509e-39
1.0078804 -1.3976187 3.332493e-05 5.2551509e-39
0.98343956 -1.4491651 -0.0034707543 5.2551509e-39
1.1054101 -1.4223469 -0.011039976 5.2551509e-39
1.0632755 -1.4191351 -0.011492439 5.2551509e-39
1.1823344 -1.3719134 0.0035406854 5.2551509e-39
1.276937 -1.3802484 0.0075105131 5.2551509e-39
1.2549561 -1.4113408 -0.0012632486 5.2551509e-39
1.3370371 -1.3835754 -0.0080336155 5.2551509e-39
1.6290425 -1.3882555 -0.0052601765 5.2551509e-39
1.5815669 -1.3808726 0.0055055199 5.2551509e-39
1.6182742 -1.4066944 0.0010777947 5.2551509e-39
1.7537836 -1.3488183 -0.0024088423 5.2551509e-39
2.0960128 -1.3713665 -0.0019721349 5.2551509e-39
0.94162989 -1.4141575 0.00042416065 5.2551509e-39
0.90784013 -1.3476853 -0.012062518 5.2551509e-39
1.038116 -1.3616014 -0.0011652291 5.2551509e-39
1.0828946 -1.3859003 -0.0037396706 5.2551509e-39
1.0189407 -1.3300241 0.005782546 5.2551509e-39
1.1060537 -1.4032418 0.0098974379 5.2551509e-39
1.1462517 -1.3664172 -0.012317617 5.2551509e-39
1.1593806 -1.3749841 -0.012227655 5.2551509e-39
1.2097017 -1.3312752 -0.010623934 5.2551509e-39
1.3469623 -1.3901917 0.002942885 5.2551509e-39
1.4611075 -1.3885957 -0.00042888621 5.2551509e-39
1.5556186 -1.3697546 0.00015311384 5.2551509e-39
1.6216433 -1.3830696 0.0084253559 5.2551509e-39
1.6315265 -1.3472664 -0.0028727732 5.2551509e-39
1.6961473 -1.3781682 -0.0075699985 5.2551509e-39
1.8412131 -1.3436757 0.00019964371 5.2551509e-39
1.9569178 -1.4235564 0.00065810751 5.2551509e-39
2.0218532 -1.363209 -0.0010502624 5.2551509e-39
2.007694 -1.3651999 -0.00052887236 5.2551509e-39
0.96199697 -1.372013 -0.0051183351 5.2551509e-39
0.93161005 -1.3463399 -0.0059599141 5.2551509e-39
0.94448036 -1.4096124 0.0077044815 5.2551509e-39
1.1118261 -1.3860049 -0.00011062492 5.2551509e-39
1.115467 -1.3531011 -0.012295992 5.2551509e-39
1.1557901 -1.345266 -0.00059397041 5.2551509e-39
1.2133716 -1.3638422 -0.0034883583 5.2551509e-39
1.2672685 -1.3812275 0.0069774552 5.2551509e-39
1.3675903 -1.3483961 0.006613397 5.2551509e-39
1.3880801 -1.3589337 -0.0074224793 5.2551509e-39
1.3959739 -1.3169737 0.0030517485 5.2551509e-39
1.7419831 -1.3537678 0.008414913 5.2551509e-39
1.83136 -1.3801949 0.00031801994 5.2551509e-39
1.974823 -1.3409795 -0.0052567581 5.2551509e-39
2.0393281 -1.3286585 0.0035609391 5.2551509e-39
0.82188553 -1.2999284 0.0081741195 5.2551509e-39
0.87297094 -1.3648554 -0.0054460145 5.2551509e-39
0.93794554 -1.3222272 -0.00082852494 5.2551509e-39
0.92473358 -1.3671916 -0.0046755141 5.2551509e-39
0.96339214 -1.3029008 0.0027918462 5.2551509e-39
1.0015141 -1.3377301 0.0036353644 5.2551509e-39
1.12853 -1.3750018 -0.0084446017 5.2551509e-39
1.1588703 -1.3591387 0.0012421793 5.2551509e-39
1.1653517 -1.3297499 0.0032973567 5.2551509e-39
1.2832161 -1.3004235 0.010560579 5.2551509e-39
1.2880473 -1.312452 0.0050954451 5.2551509e-39
1.321596 -1.3396189 0.0089336326 5.2551509e-39
1.6323756 -1.356074 -0.0075129909 5.2551509e-39
1.6877978 -1.3492801 0.0056090406 5.2551509e-39
1.7601535 -1.3510146 0.005907468 5.2551509e-39
1.8494431 -1.3423777 0.0051556039 5.2551509e-39
1.9848187 -1.3738822 0.0045754188 5.2551509e-39
0.96605289 -1.314539 -0.0062157325 5.2551509e-39
0.94042975 -1.3249089 0.0041998448 5.2551509e-39
1.0238069 -1.2960141 0.0037146183 5.2551509e-39
1.1410835 -1.3050734 -0.0050804382 5.2551509e-39
1.152608 -1.2921025 -0.0023199979 5.2551509e-39
1.2046717 -1.2990719 0.00017895918 5.2551509e-39
1.2598218 -1.3066239 0.011183997 5.2551509e-39
1.2990105 -1.3114156 0.011024556 5.2551509e-39
1.3116628 -1.3264965 0.00042677665 5.2551509e-39
1.316349 -1.2812786 0.0046846592 5.2551509e-39
1.3394856 -1.3128939 -0.00059317687 5.2551509e-39
1.4060491 -1.3329695 -0.0092091877 5.2551509e-39
1.3919835 -1.3013592 0.0052646864 5.2551509e-39
1.4525906 -1.3159683 0.0013029225 5.2551509e-39
1.4219925 -1.310143 -0.0030606356 5.2551509e-39
1.5307418 -1.2943513 -0.006249629 5.2551509e-39
1.5484995 -1.3345994 0.0036931799 5.2551509e-39
1.5597129 -1.3495744 0.0061694277 5.2551509e-39
1.5756676 -1.3267825 -0.0036034121 5.2551509e-39
1.6851411 -1.3063196 -0.0020409992 5.2551509e-39
1.8907987 -1.3481315 0.0050939461 5.2551509e-39
1.9213731 -1.3307511 -0.0029052123 5.2551509e-39
1.9850411 -1.2771714 0.0061082146 5.2551509e-39
0.84480375 -1.2101398 0.013663465 5.2551509e-39
0.83575577 -1.2435462 0.0020189309 5.2551509e-39
0.9925918 -1.2845421 0.011370045 5.2551509e-39
0.99054384 -1.2828637 -0.0010730147 5.2551509e-39
1.0652581 -1.2752979 0.0092949253 5.2551509e-39
1.2646855 -1.2976916 0.010846268 5.2551509e-39
1.4236372 -1.2327472 0.001972425 5.2551509e-39
1.4125793 -1.2801174 -0.0082747424 5.2551509e-39
1.4830024 -1.3354608 0.005727259 5.2551509e-39
1.5024239 -1.2535273 -0.0087823234 5.2551509e-39
1.611904 -1.3033496 0.008693465 5.2551509e-39
1.6609462 -1.3230525 -0.0060309046 5.2551509e-39
0.85867226 -1.2633498 -0.0071355114 5.2551509e-39
0.85153729 -1.3139589 -0.0046812179 5.2551509e-39
0.92901868 -1.3059856 0.0030746306 5.2551509e-39
0.9585771 -1.2483966 -0.0059917206 5.2551509e-39
1.0434308 -1.2726673 -0.010435874 5.2551509e-39
1.0490837 -1.287398 -0.0040813792 5.2551509e-39
1.1221823 -1.2610365 -6.002123e-05 5.2551509e-39
1.0881335 -1.2497246 0.0059492276 5.2551509e-39
1.1317297 -1.2695119 -0.010756678 5.2551509e-39
1.1494472 -1.2791483 -0.0040393956 5.2551509e-39
1.3139044 -1.2837255 -0.010965955 5.2551509e-39
1.3421012 -1.2670529 -0.0056989831 5.2551509e-39
1.4537452 -1.3117301 -0.0066833985 5.2551509e-39
1.4896636 -1.2487445 -0.0028560855 5.2551509e-39
1.4619035 -1.2569681 -0.010697708 5.2551509e-39
1.5870173 -1.2717148 0.0067897062 5.2551509e-39
1.7225981 -1.2828358 -0.004665012 5.2551509e-39
1.7258886 -1.2291256 -0.0024532592 5.2551509e-39
1.8348716 -1.2618413 -0.002300659 5.2551509e-39
1.9047734 -1.2105333 -0.0044437083 5.2551509e-39
2.135432 -1.3024813 0.00026727238 5.2551509e-39
2.0937846 -1.2574358 0.002786905 5.2551509e-39
2.1463883 -1.2064587 0.0028683103 5.2551509e-39
0.87012362 -1.2400163 -0.0031381438 5.2551509e-39
0.93816042 -1.2443638 0.0096651223 5.2551509e-39
0.99233067 -1.2196941 0.010426477 5.2551509e-39
1.1210021 -1.2590669 0.0027724656 5.2551509e-39
1.1196113 -1.2627398 -0.010339746 5.2551509e-39
1.1521947 -1.2595524 0.0016065215 5.2551509e-39
1.2834835 -1.2521772 -0.0017931928 5.2551509e-39
1.2760974 -1.2418526 0.011069202 5.2551509e-39
1.2895584 -1.2783546 -0.006099917 5.2551509e-39
1.3314854 -1.2627372 -0.0072947051 5.2551509e-39
1.4379587 -1.2442917 -0.010212492 5.2551509e-39
1.4539055 -1.2636753 0.0055307504 5.2551509e-39
1.5021319 -1.2323543 0.0033148616 5.2551509e-39
1.5377362 -1.2816753 0.010078898 5.2551509e-39
1.5774713 -1.2534387 0.0043189265 5.2551509e-39
2.1033173 -1.2483126 0.0017672036 5.2551509e-39
0.80875045 -1.2132024 -0.005263634 5.2551509e-39
0.87055117 -1.2641665 0.0049694534 5.2551509e-39
0.87851995 -1.2380946 -0.01154678 5.2551509e-39
0.93624282 -1.2611055 -0.0079898983 5.2551509e-39
0.96084827 -1.2291354 0.0014355388 5.2551509e-39
1.0418724 -1.2269094 -0.0042194221 5.2551509e-39
0.97031432 -1.2506435 -0.0031044474 5.2551509e-39
1.0338395 -1.2675552 -0.0092645725 5.2551509e-39
1.1824069 -1.2186571 0.010670379 5.2551509e-39
1.1878217 -1.2293082 -0.0059833829 5.2551509e-39
1.2424599 -1.2495365 0.0089516044 5.2551509e-39
1.2916788 -1.2130744 0.0073315497 5.2551509e-39
1.412189 -1.1952326 -0.003280205 5.2551509e-39
1.4844556 -1.2241101 -0.0072470051 5.2551509e-39
1.4910023 -1.2492374 0.0073403274 5.2551509e-39
1.4806052 -1.2093123 -0.0095862448 5.2551509e-39
1.4910944 -1.2253933 -0.0095043853 5.2551509e-39
1.5288171 -1.2297436 0.008614555 5.2551509e-39
1.84164 -1.2352529 -0.0014977079 5.2551509e-39
1.8398027 -1.1872424 -0.0071858764 5.2551509e-39
1.8912505 -1.2218874 -0.00021903991 5.2551509e-39
1.9671746 -1.2288915 -0.0015449357 5.2551509e-39
0.85469151 -1.2358907 6.481546e-05 5.2551509e-39
0.89298373 -1.2001559 0.00094638066 5.2551509e-39
0.90503752 -1.2291791 -0.0015386306 5.2551509e-39
0.93685961 -1.202679 0.0095023746 5.2551509e-39
0.9826259 -1.2106225 -0.0029418534 5.2551509e-39
1.0156034 -1.2288893 -0.00052519812 5.2551509e-39
1.0297837 -1.2082222 0.0084395399 5.2551509e-39
1.0809113 -1.2267957 0.0039835866 5.2551509e-39
1.0687333 -1.1968973 -0.00034738003 5.2551509e-39
1.099484 -1.2297219 -0.0037700371 5.2551509e-39
1.2292373 -1.2216355 -0.0014653538 5.2551509e-39
1.2741455 -1.2284604 0.0010927194 5.2551509e-39
1.3408787 -1.2049378 0.0072547202 5.2551509e-39
1.3430703 -1.1899936 -0.00089019031 5.2551509e-39
1.4038221 -1.2011089 0.00079556875 5.2551509e-39
1.4285504 -1.2151114 -0.0021410461 5.2551509e-39
1.5871434 -1.2171788 -0.0020957226 5.2551509e-39
1.6463276 -1.1550184 0.0093787564 5.2551509e-39
1.6589382 -1.2207148 0.0028394174 5.2551509e-39
1.637666 -1.2270467 0.00059167499 5.2551509e-39
1.7067937 -1.2320428 -0.003406856 5.2551509e-39
1.7262602 -1.1999965 -0.00047603695 5.2551509e-39
1.6988043 -1.2154551 -0.0035574404 5.2551509e-39
1.7657332 -1.2028744 0.0035819591 5.2551509e-39
1.762203 -1.2323297 -0.0024207137 5.2551509e-39
1.8218333 -1.2062256 -0.004721527 5.2551509e-39
1.8828702 -1.1841553 0.0050089154 5.2551509e-39
2.1418426 -1.1889014 -0.0029315904 5.2551509e-39
2.1419845 -1.2069731 0.0031795818 5.2551509e-39
0.9632144 -1.2009219 0.01131467 5.2551509e-39
0.9906534 -1.2239333 0.0025627371 5.2551509e-39
1.0577585 -1.1725372 0.012770634 5.2551509e-39
1.1241813 -1.1889874 -0.012762483 5.2551509e-39
1.163012 -1.1883316 0.0063481079 5.2551509e-39
1.183256 -1.185447 0.0076950905 5.2551509e-39
1.22093 -1.1464412 -0.011208614 5.2551509e-39
1.2876315 -1.1984031 0.0074403971 5.2551509e-39
1.2667749 -1.1712002 -0.0069155712 5.2551509e-39
1.2525517 -1.2055771 0.011221843 5.2551509e-39
1.3526652 -1.1586428 0.010600521 5.2551509e-39
1.382652 -1.1503501 0.0048924536 5.2551509e-39
1.4594966 -1.2028648 0.0012729606 5.2551509e-39
1.4788988 -1.1942115 -0.0085719079 5.2551509e-39
1.4862533 -1.1772105 0.0075269961 5.2551509e-39
1.6085596 -1.147211 0.008826579 5.2551509e-39
1.6253773 -1.2426943 -0.0039247405 5.2551509e-39
1.7285442 -1.154586 0.0067077111 5.2551509e-39
1.8328413 -1.2200419 0.0079272473 5.2551509e-39
1.8488114 -1.2331139 -0.0073083597 5.2551509e-39
1.8713027 -1.1696005 -0.0044507561 5.2551509e-39
1.9622102 -1.1726358 0.0036404934 5.2551509e-39
1.9734422 -1.1663619 -0.0064567579 5.2551509e-39
2.0229239 -1.1695328 0.0016779752 5.2551509e-39
0.86437333 -1.1428493 -0.0087235803 5.2551509e-39
0.82580698 -1.1686418 0.0062372601 5.2551509e-39
0.91777092 -1.1825236 0.0045764786 5.2551509e-39
0.95735496 -1.188412 -0.0046593593 5.2551509e-39
1.0018538 -1.1621925 -0.0069683548 5.2551509e-39
1.0202556 -1.139176 0.013510102 5.2551509e-39
1.1252284 -1.1831657 -0.011103764 5.2551509e-39
1.1378309 -1.1918674 -0.010069855 5.2551509e-39
1.2327492 -1.1259412 -0.0043400098 5.2551509e-39
1.2361007 -1.1651398 -0.0097026881 5.2551509e-39
1.2719508 -1.1426104 -0.0043013026 5.2551509e-39
1.2907733 -1.1649936 -5.1053776e-05 5.2551509e-39
1.3016019 -1.1666607 0.011783728 5.2551509e-39
1.3175619 -1.16679 -0.0055828788 5.2551509e-39
1.4517292 -1.1887469 -0.0038220661 5.2551509e-39
1.4537719 -1.1761822 0.0031283097 5.2551509e-39
1.4292576 -1.172769 0.0028799919 5.2551509e-39
1.5032588 -1.1965041 -0.0053539569 5.2551509e-39
1.6370308 -1.1813947 -0.00076356909 5.2551509e-39
1.7071162 -1.1644449 0.005404003 5.2551509e-39
1.6922934 -1.1534626 -0.0014343922 5.2551509e-39
1.7849277 -1.1747333 -0.0054409141 5.2551509e-39
1.8780425 -1.0999438 -0.0016189475 5.2551509e-39
1.911875 -1.1686176 -0.0061944933 5.2551509e-39
2.1526618 -1.2050089 0.0015580247 5.2551509e-39
0.93944359 -1.1586248 -0.0018131015 5.2551509e-39
0.9727509 -1.165332 -0.0097533762 5.2551509e-39
1.1254915 -1.1807535 -0.0081001185 5.2551509e-39
1.1468991 -1.1961854 0.010648103 5.2551509e-39
1.1487392 -1.1651381 -0.0058465898 5.2551509e-39
1.2066574 -1.1194911 0.01078248 5.2551509e-39
1.2885021 -1.1231481 0.0077748778 5.2551509e-39
1.289608 -1.1521202 -0.007580623 5.2551509e-39
1.3287542 -1.1509002 0.0019332815 5.2551509e-39
1.3360447 -1.1719064 -0.0053897141 5.2551509e-39
1.391003 -1.1579156 0.011476791 5.2551509e-39
1.4175994 -1.1670065 0.0032235542 5.2551509e-39
1.4153852 -1.1977239 -0.0077448846 5.2551509e-39
1.5394301 -1.156196 -0.0016616172 5.2551509e-39
1.5200982 -1.1608498 0.001183304 5.2551509e-39
1.5546674 -1.1601038 -0.0010306783 5.2551509e-39
1.6531011 -1.1834973 0.0075249099 5.2551509e-39
1.8194733 -1.1534173 0.0030961751 5.2551509e-39
0.8767727 -1.1608255 0.0065943967 5.2551509e-39
0.93155271 -1.133818 -0.01058152 5.2551509e-39
1.000078 -1.1214225 -0.0092982333 5.2551509e-39
1.0205003 -1.1349645 0.0098032067 5.2551509e-39
1.0505992 -1.1102523 -0.0055068191 5.2551509e-39
1.1333473 -1.1121262 -0.0041094832 5.2551509e-39
1.1129019 -1.1486381 0.0094550774 5.2551509e-39
1.2234445 -1.08843 -0.0011514607 5.2551509e-39
1.2344246 -1.1329128 0.0034045097 5.2551509e-39
1.3067818 -1.1361691 -0.0042850086 5.2551509e-39
1.4363937 -1.1094979 -0.0012172794 5.2551509e-39
1.5125387 -1.1485218 0.002752251 5.2551509e-39
1.531129 -1.105255 0.0052189911 5.2551509e-39
1.620123 -1.1089041 -0.0040864991 5.2551509e-39
1.836259 -1.1283708 0.0050762892 5.2551509e-39
1.9614528 -1.1200862 0.0021509749 5.2551509e-39
0.83574337 -1.1537898 0.0052530435 5.2551509e-39
0.85267508 -1.0975137 0.0086524822 5.2551509e-39
0.86837131 -1.1014702 0.0049766786 5.2551509e-39
1.0215492 -1.1091826 0.012932015 5.2551509e-39
1.0391521 -1.1211623 -0.012394941 5.2551509e-39
1.0893576 -1.1236308 0.01099642 5.2551509e-39
1.143473 -1.1041766 -0.0019011541 5.2551509e-39
1.2579705 -1.1076576 -0.011958682 5.2551509e-39
1.2814538 -1.1272717 -0.0020228329 5.2551509e-39
1.2899147 -1.0763346 0.0059814998 5.2551509e-39
1.3890034 -1.1467953 0.010133086 5.2551509e-39
1.3845824 -1.1061149 0.0098408675 5.2551509e-39
1.4830421 -1.1254653 -0.00090280408 5.2551509e-39
1.4205079 -1.1400597 -0.002039046 5.2551509e-39
1.5611596 -1.1235938 -0.00018115898 5.2551509e-39
1.5740815 -1.1468782 0.0032455667 5.2551509e-39
1.6737963 -1.1274899 -0.0050286851 5.2551509e-39
1.7697674 -1.1043253 -0.0057245577 5.2551509e-39
1.9796425 -1.0942239 0.003369322 5.2551509e-39
0.81437957 -1.1352819 -0.0013639571 5.2551509e-39
0.85493177 -1.1348876 0.0044007367 5.2551509e-39
0.89131153 -1.0606264 0.011419928 5.2551509e-39
0.94212115 -1.0843143 -0.0026055148 5.2551509e-39
1.0121895 -1.0541883 0.0023402933 5.2551509e-39
1.0363746 -1.1159189 -0.0061292294 5.2551509e-39
1.1196049 -1.1286443 -0.00056571013 5.2551509e-39
1.2750154 -1.0994052 -0.0080401069 5.2551509e-39
1.3181914 -1.0825685 0.0056638932 5.2551509e-39
1.3701614 -1.1163173 -0.0044999048 5.2551509e-39
1.4358714 -1.1566827 -0.0079060281 5.2551509e-39
1.4930396 -1.0604451 -0.0023994897 5.2551509e-39
1.6254398 -1.1391999 0.009433426 5.2551509e-39
1.8524632 -1.0921558 -0.0016408614 5.2551509e-39
1.846585 -1.0736758 0.0014487787 5.2551509e-39
1.9068041 -1.0979853 0.0016114967 5.2551509e-39
1.9610213 -1.0984515 0.00018903789 5.2551509e-39
0.80401963 -1.0621893 0.0066416035 5.2551509e-39
0.87796414 -1.0523174 -0.01323632 5.2551509e-39
0.92480814 -1.0569109 -0.012744035 5.2551509e-39
0.93740517 -1.0651698 0.010776353 5.2551509e-39
1.0361319 -1.0523202 -0.010656311 5.2551509e-39
1.1339442 -1.126475 -0.0018293186 5.2551509e-39
1.3004036 -1.0744317 -0.0090103326 5.2551509e-39
1.3102049 -1.071683 0.00070136337 5.2551509e-39
1.287618 -1.0714567 -0.005072698 5.2551509e-39
1.3263375 -1.0217938 0.0042993533 5.2551509e-39
1.3566147 -1.0780512 -0.0025846632 5.2551509e-39
1.4888885 -1.0741081 0.01008011 5.2551509e-39
1.4618411 -1.1255833 -0.0070520183 5.2551509e-39
1.5037129 -1.0759908 0.010200159 5.2551509e-39
1.5565434 -1.107967 -0.008729483 5.2551509e-39
1.544171 -1.0495132 0.0050343927 5.2551509e-39
1.5603763 -1.0423772 -0.008949399 5.2551509e-39
1.5792456 -1.0374048 -0.0077069751 5.2551509e-39
1.629945 -1.0479367 -0.00064133987 5.2551509e-39
1.6530081 -1.0469984 -0.0010580202 5.2551509e-39
1.6572831 -1.072579 0.0054833521 5.2551509e-39
1.7421345 -1.05804 -0.0013959517 5.2551509e-39
1.9622689 -1.0911742 0.0012714344 5.2551509e-39
1.9620057 -1.1012206 -0.0068610674 5.2551509e-39
1.9850332 -1.0410244 -0.0018589823 5.2551509e-39
2.0392537 -1.0988315 0.004737773 5.2551509e-39
0.83847404 -1.0710635 0.011067787 5.2551509e-39
0.84906495 -1.0857695 0.0027335424 5.2551509e-39
0.86256325 -1.0665013 0.0087402398 5.2551509e-39
0.96695435 -1.0539134 0.0055265166 5.2551509e-39
0.98248434 -1.0735191 0.0047998503 5.2551509e-39
1.0250313 -1.0554074 0.0041682511 5.2551509e-39
1.0646048 -1.0372463 0.0065587661 5.2551509e-39
1.3111813 -1.070877 -0.0065773157 5.2551509e-39
1.337911 -1.0313145 -0.0042865491 5.2551509e-39
1.3885651 -1.0364836 0.0047768503 5.2551509e-39
1.4028403 -1.0363777 0.010111086 5.2551509e-39
1.4410721 -1.0814543 -0.001756935 5.2551509e-39
1.579839 -1.0754517 -0.0028113392 5.2551509e-39
1.7913343 -1.0296463 -0.0019202296 5.2551509e-39
1.887727 -1.0287609 -0.0047188615 5.2551509e-39
1.9101881 -1.0417331 -0.005526925 5.2551509e-39
0.83766866 -1.020723 -0.0065057045 5.2551509e-39
0.91565895 -0.99958402 -0.0077440301 5.2551509e-39
0.89106244 -1.0159616 0.010472747 5.2551509e-39
0.93081754 -1.0164431 0.0025586006 5.2551509e-39
1.0085531 -1.0797334 -0.012835747 5.2551509e-39
1.0156119 -1.0525416 0.0065194941 5.2551509e-39
1.3425323 -1.011587 -0.0060252352 5.2551509e-39
1.3580204 -1.0499464 -0.0099522816 5.2551509e-39
1.353954 -1.0214101 -0.0095921233 5.2551509e-39
1.4926803 -0.9909296 0.0095418319 5.2551509e-39
1.4717898 -1.0093267 -0.001475013 5.2551509e-39
1.5323076 -1.0011525 -0.0074585672 5.2551509e-39
1.5633903 -1.0441265 -0.0055875368 5.2551509e-39
1.705425 -1.0092332 0.0082661118 5.2551509e-39
2.1117525 -1.0358974 -0.00048633685 5.2551509e-39
0.88228035 -1.0478641 0.004113955 5.2551509e-39
0.88132423 -0.9616555 0.013013839 5.2551509e-39
0.99765354 -1.0040601 0.0028450175 5.2551509e-39
0.97956717 -1.0214174 0.0025798089 5.2551509e-39
1.3122109 -1.0011381 0.0021208471 5.2551509e-39
1.3231616 -1.0718354 -0.002686895 5.2551509e-39
1.3867134 -1.0148692 0.0096757421 5.2551509e-39
1.3988938 -0.98021942 0.0086104572 5.2551509e-39
1.4479916 -0.97737318 -0.0027979044 5.2551509e-39
1.4749999 -0.97489041 -0.0099500949 5.2551509e-39
1.5221164 -0.98375142 -0.0091923513 5.2551509e-39
1.5964724 -0.98701721 -0.0055324943 5.2551509e-39
1.6291281 -1.0236419 -0.0099559017 5.2551509e-39
1.7006623 -1.018908 -0.0044478457 5.2551509e-39
1.7727383 -1.0146098 -0.001604619 5.2551509e-39
1.8640226 -0.97877061 -0.0044779032 5.2551509e-39
1.8652155 -0.94083089 0.0068149064 5.2551509e-39
1.8977239 -0.99515855 -0.0020716684 5.2551509e-39
2.0210834 -0.97484326 -0.0027571314 5.2551509e-39
2.0213981 -1.0256824 -9.15286e-05 5.2551509e-39
0.81535226 -0.96030098 0.0010652803 5.2551509e-39
0.87098014 -0.99193913 0.0012586858 5.2551509e-39
0.9000569 -0.95385957 0.011391018 5.2551509e-39
0.93997449 -0.96827859 0.0091636935 5.2551509e-39
1.3342779 -1.0126433 0.00021290105 5.2551509e-39
1.3490171 -1.0382758 0.0035034944 5.2551509e-39
1.3587198 -1.0072972 -0.0049636452 5.2551509e-39
1.3647401 -1.0036038 -0.0038413706 5.2551509e-39
1.4789237 -0.98761672 0.0030825885 5.2551509e-39
1.5298853 -1.0101655 -0.0042484482 5.2551509e-39
1.582145 -0.97324711 -0.004965249 5.2551509e-39
1.6888618 -0.98275197 0.0084675085 5.2551509e-39
1.7324544 -1.0217494 0.0011591977 5.2551509e-39
1.7596446 -1.0308686 0.006133147 5.2551509e-39
1.8461313 -0.94553685 -0.0035640984 5.2551509e-39
1.8464262 -0.97535992 0.0015707284 5.2551509e-39
1.9621831 -1.0103073 0.0054336684 5.2551509e-39
1.9702488 -1.00677 0.0044164374 5.2551509e-39
2.105273 -0.95486736 -0.0025024009 5.2551509e-39
2.0995502 -0.99703461 0.0020587111 5.2551509e-39
0.83512634 -1.0290477 0.012929935 5.2551509e-39
0.95919973 -0.93238753 -0.0050739022 5.2551509e-39
0.93951619 -0.98675507 0.004653933 5.2551509e-39
1.3204771 -0.93621051 0.0037668976 5.2551509e-39
1.3895611 -1.0173365 -0.0028473148 5.2551509e-39
1.4272285 -0.9402734 -0.001873275 5.2551509e-39
1.426389 -0.98054904 0.0026018645 5.2551509e-39
1.4819931 -0.96828657 0.010358687 5.2551509e-39
1.5455251 -1.0140082 0.0042686639 5.2551509e-39
1.5278445 -0.96732479 0.0026306605 5.2551509e-39
1.580117 -0.97298032 -0.0069162785 5.2551509e-39
1.6252818 -1.0224336 -0.0034973656 5.2551509e-39
1.693432 -0.96917576 -0.0023019211 5.2551509e-39
1.8159715 -0.90354705 0.0056291306 5.2551509e-39
2.0318286 -1.0146945 0.0044616265 5.2551509e-39
2.051187 -0.94980347 0.00068240956 5.2551509e-39
0.8596549 -0.96277297 0.0073968312 5.2551509e-39
0.93625432 -0.93483281 0.0023258266 5.2551509e-39
0.94692516 -0.93593484 0.0029304565 5.2551509e-39
0.9449814 -0.95650166 0.0097864596 5.2551509e-39
1.0058091 -0.99118733 0.011323081 5.2551509e-39
1.236549 -0.94509256 0.00052128488 5.2551509e-39
1.2966049 -0.91922468 0.00013728408 5.2551509e-39
1.388649 -0.92342514 0.0066330065 5.2551509e-39
1.6249572 -0.96802866 0.0098638162 5.2551509e-39
1.6303246 -0.96772563 -0.00135729 5.2551509e-39
1.6713696 -0.97337306 -0.0035235286 5.2551509e-39
1.7300632 -0.90008283 -0.0032727802 5.2551509e-39
1.7567366 -0.94249076 0.0011103286 5.2551509e-39
1.8858038 -0.95593429 -0.0051255296 5.2551509e-39
0.83302337 -0.9021005 0.0054215658 5.2551509e-39
0.86801696 -0.95205271 -0.0027448877 5.2551509e-39
0.92383927 -0.95131648 0.0077258833 5.2551509e-39
1.2107853 -0.92851603 -0.0014055191 5.2551509e-39
1.3615413 -0.92019397 -0.0079628425 5.2551509e-39
1.5581869 -0.91314787 0.0032043094 5.2551509e-39
1.5952107 -0.93761659 0.008403237 5.2551509e-39
1.615905 -0.91473031 0.0046736849 5.2551509e-39
1.6682116 -0.92172909 0.0033758779 5.2551509e-39
1.690064 -0.91767675 -0.0087682959 5.2551509e-39
1.7452266 -0.92033511 0.0016190213 5.2551509e-39
1.9897991 -0.94188577 -0.0039023752 5.2551509e-39
2.0231175 -0.93605202 -0.0032470226 5.2551509e-39
2.1185727 -0.94069719 0.0014944996 5.2551509e-39
0.85101193 -0.88622415 0.0026106895 5.2551509e-39
0.89384389 -0.94630009 0.00443639 5.2551509e-39
1.2052481 -0.91197753 -0.0010472649 5.2551509e-39
1.3328645 -0.951006 0.0059865229 5.2551509e-39
1.4328794 -0.87342763 0.0062425435 5.2551509e-39
1.4500513 -0.85633928 0.010983917 5.2551509e-39
1.5157477 -0.93265635 0.0064820903 5.2551509e-39
1.6996466 -0.95479769 0.0061885789 5.2551509e-39
1.6727891 -0.88512987 0.0063898177 5.2551509e-39
1.7474166 -0.92313713 0.0023718891 5.2551509e-39
1.7498385 -0.91055393 -0.0053684358 5.2551509e-39
1.9492633 -0.8946268 -0.0054254388 5.2551509e-39
0.87688231 -0.90638757 -0.012212782 5.2551509e-39
0.90115678 -0.87403023 0.0040731947 5.2551509e-39
1.1935228 -0.86210656 0.0063020671 5.2551509e-39
1.3224065 -0.93434304 -0.0090397084 5.2551509e-39
1.3173666 -0.86771923 0.0084518027 5.2551509e-39
1.352955 -0.8902877 0.0036732005 5.2551509e-39
1.3716781 -0.89024514 -0.0043399334 5.2551509e-39
1.4354147 -0.89411962 -0.0076697352 5.2551509e-39
1.4636624 -0.88917094 -0.0068260031 5.2551509e-39
1.6687391 -0.87534082 0.0057626618 5.2551509e-39
1.6910878 -0.90836346 0.0079739932 5.2551509e-39
1.7407625 -0.8720203 -0.0078399451 5.2551509e-39
1.8116519 -0.90822643 -0.0060407962 5.2551509e-39
1.7648976 -0.87131214 -0.0055275727 5.2551509e-39
1.8770716 -0.87688416 -0.0041114856 5.2551509e-39
1.897815 -0.81522638 0.0028715178 5.2551509e-39
2.0390556 -0.89955622 -0.0015238399 5.2551509e-39
0.8443073 -0.90467906 -0.00085665938 5.2551509e-39
0.87027186 -0.86019129 0.0034288343 5.2551509e-39
1.2677222 -0.87987381 -0.005196346 5.2551509e-39
1.3101735 -0.87745333 -0.0067447717 5.2551509e-39
1.4145465 -0.89728582 -0.0094383303 5.2551509e-39
1.4132985 -0.84219128 0.0027321484 5.2551509e-39
1.4389858 -0.85919863 0.010711766 5.2551509e-39
1.4917433 -0.91738015 0.0016334405 5.2551509e-39
1.5447944 -0.87643129 -0.00078127469 5.2551509e-39
1.5665001 -0.88426638 -0.0024600637 5.2551509e-39
1.5751821 -0.86635917 -0.00075368391 5.2551509e-39
1.5839611 -0.83232868 -0.007465899 5.2551509e-39
1.6291201 -0.90880746 -0.0030098034 5.2551509e-39
1.6632178 -0.89264965 -0.00096957816 5.2551509e-39
1.7170243 -0.82708907 0.0042226161 5.2551509e-39
1.800311 -0.89251232 2.9958537e-05 5.2551509e-39
1.9028008 -0.91994047 -0.0045337388 5.2551509e-39
0.83000398 -0.85093039 0.0082237981 5.2551509e-39
0.88048422 -0.83881557 -0.0040246416 5.2551509e-39
0.89179754 -0.84658962 -0.0022244852 5.2551509e-39
1.1924888 -0.84348124 0.0057380954 5.3473465e-39
1.4179546 -0.89007896 0.0079945298 5.2551509e-39
1.5660865 -0.8719697 -0.0054980754 5.2551509e-39
1.6750629 -0.84000409 -0.0012650538 5.2551509e-39
1.6450086 -0.79941928 -0.0056251129 5.2551509e-39
1.7418897 -0.86597431 -0.0055638258 5.2551509e-39
1.8279884 -0.85411644 0.0053189793 5.2551509e-39
1.7943751 -0.85551411 0.006782019 5.2551509e-39
1.8740458 -0.81063914 0.0019843858 5.2551509e-39
1.9380178 -0.83869171 -0.0038653654 5.2551509e-39
2.0558133 -0.83074176 -0.0024772426 5.2551509e-39
2.0679803 -0.84630436 0.0034070197 5.2551509e-39
2.0666392 -0.8837254 0.0031289207 5.2551509e-39
0.88949734 -0.8478151 -0.014300725 5.3473465e-39
1.1833292 -0.83948708 -0.0036544653 5.3473465e-39
1.2506511 -0.85706472 0.0067156805 5.3473465e-39
1.28669 -0.8468101 -0.001753082 5.3473465e-39
1.3891886 -0.88526595 -0.0047476473 5.3473465e-39
1.51454 -0.86000931 -0.0017985289 5.2551509e-39
1.6687331 -0.81142181 -0.0042389156 5.2551509e-39
1.6821874 -0.87799937 0.0021212772 5.2551509e-39
1.7481359 -0.828457 -0.0028890918 5.2551509e-39
1.8486127 -0.8764106 -0.0041724164 5.2551509e-39
1.9700707 -0.80142528 -0.005528226 5.2551509e-39
2.181937 -0.81651086 0.00013609139 5.2551509e-39
1.6016045 -0.80067259 -0.0048747812 5.2551509e-39
1.6067423 -0.81850362 0.0031833583 5.2551509e-39
1.6183671 -0.81487757 -0.0079529444 5.2551509e-39
1.6854711 -0.83969671 0.00012839041 5.2551509e-39
1.8792052 -0.76022893 -0.0025571873 5.2551509e-39
1.8959706 -0.74171555 -0.0029292083 5.2551509e-39
1.9659836 -0.77379835 -0.00058504764 5.2551509e-39
1.6165471 -0.77290827 0.0072776861 5.2551509e-39
1.6844475 -0.7446484 -0.0025254439 5.2551509e-39
1.7610997 -0.8005991 -0.0021318442 5.2551509e-39
1.8436902 -0.84424061 0.0069654775 5.2551509e-39
1.9957186 -0.76975286 -0.0033867576 5.2551509e-39
