# .PCD v0.7 - Point Cloud Data file format
VERSION 0.7
FIELDS x y z rgb
SIZE 4 4 4 4
TYPE F F F F
COUNT 1 1 1 1
WIDTH 980
HEIGHT 1
VIEWPOINT 0 0 0 1 0 0 0
POINTS 980
DATA ascii
1.8845668 1.6854196 -1.3113022e-06 5.1629553e-39
1.8951389 1.6846734 -1.3113022e-06 5.1629553e-39
1.90579 1.6860363 -1.3113022e-06 5.1629553e-39
1.916505 1.6852875 -1.3113022e-06 5.1629553e-39
1.9236914 1.6847854 -1.4305115e-06 5.1629553e-39
1.9345357 1.6840274 -1.3709068e-06 5.1629553e-39
1.9454457 1.6854054 -1.1920929e-06 5.1629553e-39
1.9527634 1.684899 -1.4305115e-06 5.1629553e-39
1.9630682 1.6850477 -1.3113022e-06 5.1629553e-39
1.9749171 1.6855258 -1.3113022e-06 5.1629553e-39
1.986113 1.6847581 -1.4305115e-06 5.1629553e-39
1.9973775 1.6839857 -1.4305115e-06 5.1629553e-39
2.0049336 1.6834676 -1.4305115e-06 5.1629553e-39
2.0125246 1.6851326 -1.3113022e-06 5.1629553e-39
2.0232158 1.685285 -1.3113022e-06 5.1629553e-39
2.0355105 1.6857729 -1.4305115e-06 5.1629553e-39
2.0432439 1.6852527 -1.3113022e-06 5.1629553e-39
2.0549171 1.684468 -1.3113022e-06 5.1629553e-39
2.0666635 1.6836783 -1.4305115e-06 5.1629553e-39
2.0745437 1.6853753 -1.4305115e-06 5.1629553e-39
2.0824611 1.6848482 -1.3113022e-06 5.1629553e-39
2.0904162 1.6865561 -1.4305115e-06 5.1629553e-39
1.1853673 1.6933478 -0.00044768053 5.1629553e-39
1.1953188 1.6946576 -1.1523565e-06 5.1629553e-39
1.2060934 1.6937252 -1.1324883e-06 5.1629553e-39
1.2147837 1.6962823 -1.3113022e-06 5.1629553e-39
1.2235349 1.6955366 -1.3113022e-06 5.1629553e-39
1.2345647 1.6945968 -1.3113022e-06 5.1629553e-39
1.2456855 1.6936489 -1.1324883e-06 5.1629553e-39
1.2546562 1.6962466 -1.1920929e-06 5.1629553e-39
1.2636912 1.6954889 -1.2516975e-06 5.1629553e-39
1.2750797 1.6945337 -1.2318293e-06 5.1629553e-39
1.2861023 1.6942908 -1.2397766e-06 5.1629553e-39
1.2958292 1.69621 -1.2516975e-06 5.1629553e-39
1.3051616 1.6954398 -1.2516975e-06 5.1629553e-39
1.3145621 1.6946636 -1.2516975e-06 5.1629553e-39
1.3240317 1.6938821 -1.2318293e-06 5.1629553e-39
1.3340495 1.6958301 -1.2397766e-06 5.1629553e-39
1.3431802 1.6957814 -1.2516975e-06 5.1629553e-39
1.3528609 1.694995 -1.2516975e-06 5.1629553e-39
1.365067 1.6940041 -1.2318293e-06 5.1629553e-39
1.3778743 1.6957855 -1.2159347e-06 5.1629553e-39
1.3873156 1.6957358 -1.3113022e-06 5.1629553e-39
1.3973265 1.6949362 -1.2516975e-06 5.1629553e-39
1.4074134 1.6941303 -1.3113022e-06 5.1629553e-39
1.4150261 1.6953099 -1.1920929e-06 5.1629553e-39
1.4231992 1.6957392 -1.1920929e-06 5.1629553e-39
1.4329668 1.6956884 -1.1920929e-06 5.1629553e-39
1.4433254 1.6948748 -1.2516975e-06 5.1629553e-39
1.4537636 1.694055 -1.2516975e-06 5.1629553e-39
1.4642825 1.6950492 -1.1920929e-06 5.1629553e-39
1.4748826 1.696051 -1.0728836e-06 5.1629553e-39
1.4855655 1.6952262 -1.1324883e-06 5.1629553e-39
1.4963318 1.6943947 -1.0728836e-06 5.1629553e-39
1.5066379 1.6943394 -1.0728836e-06 5.1629553e-39
1.5153741 1.694779 -1.3113022e-06 5.1629553e-39
1.5236193 1.6960078 -1.1920929e-06 5.1629553e-39
1.5346855 1.6951679 -1.2119611e-06 5.1629553e-39
1.5458398 1.6943216 -1.1324883e-06 5.1629553e-39
1.5570831 1.6953506 -1.0728836e-06 5.1629553e-39
1.5655719 1.6947122 -1.1920929e-06 5.1629553e-39
1.5741175 1.6959629 -1.1324883e-06 5.1629553e-39
1.5855881 1.6951078 -1.1324883e-06 5.1629553e-39
1.5942491 1.6944619 -1.0728836e-06 5.1629553e-39
1.6023858 1.6946213 -1.1444092e-06 5.1629553e-39
1.6153977 1.6951336 -0.0011603683 5.1629553e-39
1.6264744 1.6959165 -1.1324883e-06 5.1629553e-39
1.6353855 1.6952642 -1.1920929e-06 5.1629553e-39
1.6443577 1.6946069 -1.1324883e-06 5.1629553e-39
1.6557982 1.6945496 -1.1205673e-06 5.1629553e-39
1.6654993 1.6950135 -1.1920929e-06 5.1629553e-39
1.6746585 1.6943487 -1.1324883e-06 5.1629553e-39
1.683869 1.6956472 -1.1920929e-06 5.1629553e-39
1.6931437 1.6949806 -1.1920929e-06 5.1629553e-39
1.7049713 1.6949238 -1.3113022e-06 5.1629553e-39
1.7150018 1.6953967 -1.3113022e-06 5.1629553e-39
1.724473 1.6947219 -1.2516975e-06 5.1629553e-39
1.7343541 1.692722 -0.0014193679 5.1629553e-39
1.7435908 1.6953667 -1.3113022e-06 5.1629553e-39
1.7564722 1.694458 -1.3709068e-06 5.1629553e-39
1.7662019 1.6957929 -1.3113022e-06 5.1629553e-39
1.7760015 1.6951079 -1.3113022e-06 5.1629553e-39
1.7858576 1.6944191 -1.3113022e-06 5.1629553e-39
1.7964485 1.6949049 -1.3828278e-06 5.1629553e-39
1.8057694 1.6950752 -1.3113022e-06 5.1629553e-39
1.8158265 1.694379 -1.3709068e-06 5.1629553e-39
1.8259423 1.6957399 -1.3113022e-06 5.1629553e-39
1.836132 1.6950412 -1.3709068e-06 5.1629553e-39
1.8463817 1.6943386 -1.4305115e-06 5.1629553e-39
1.8532548 1.6938672 -1.3113022e-06 5.1629553e-39
1.8636252 1.6952425 -1.3113022e-06 5.1629553e-39
1.8740574 1.6945343 -1.4305115e-06 5.1629553e-39
1.8845668 1.6959211 -1.3709068e-06 5.1629553e-39
1.8951389 1.6952102 -1.3113022e-06 5.1629553e-39
1.9057899 1.694494 -1.3113022e-06 5.1629553e-39
1.916505 1.6937736 -1.3113022e-06 5.1629553e-39
1.9236914 1.695417 -1.4305115e-06 5.1629553e-39
1.9345356 1.694695 -1.3709068e-06 5.1629553e-39
1.9454458 1.6961095 -1.1920929e-06 5.1629553e-39
1.9527634 1.6956275 -1.4305115e-06 5.1629553e-39
1.9638066 1.6948996 -1.3113022e-06 5.1629553e-39
1.9749171 1.6941675 -1.3113022e-06 5.1629553e-39
1.9868616 1.6946825 -1.4305115e-06 5.1629553e-39
1.9973775 1.6948627 -1.4305115e-06 5.1629553e-39
2.0049336 1.6943698 -1.4305115e-06 5.1629553e-39
2.0125246 1.6960599 -1.3113022e-06 5.1629553e-39
2.023982 1.6953202 -1.3113022e-06 5.1629553e-39
2.0355105 1.6945758 -1.4305115e-06 5.1629553e-39
2.0432439 1.6940763 -1.3113022e-06 5.1629553e-39
2.0556977 1.694602 -1.3113022e-06 5.1629553e-39
2.0666635 1.6947857 -1.4305115e-06 5.1629553e-39
2.0745437 1.696509 -1.4305115e-06 5.1629553e-39
2.0824611 1.6960082 -1.3113022e-06 5.1629553e-39
2.0904162 1.6955053 -1.4305115e-06 5.1629553e-39
1.1981804 1.7020798 -1.2318293e-06 5.1629553e-39
1.2060934 1.703617 -1.1324883e-06 5.1629553e-39
1.2147837 1.7062087 -1.3113022e-06 5.1629553e-39
1.2235351 1.7054979 -1.3113022e-06 5.1629553e-39
1.2345645 1.7046022 -1.3113022e-06 5.1629553e-39
1.2456855 1.7036991 -1.1722246e-06 5.1629553e-39
1.2546562 1.7063326 -1.1920929e-06 5.1629553e-39
1.2636912 1.7056108 -1.2516975e-06 5.1629553e-39
1.2750797 1.7047011 -1.2318293e-06 5.1629553e-39
1.286564 1.7037836 -1.2516975e-06 5.1629553e-39
1.2962729 1.7060434 -0.00027203572 5.1629553e-39
1.3051615 1.7057272 -1.2516975e-06 5.1629553e-39
1.3145621 1.7049888 -1.2516975e-06 5.1629553e-39
1.3240317 1.7042451 -1.2516975e-06 5.1629553e-39
1.3330921 1.7042274 -1.2636185e-06 5.1629553e-39
1.3431803 1.7062207 -1.2914339e-06 5.1629553e-39
1.3530089 1.7059956 -0.00093346025 5.1629553e-39
1.365067 1.7045308 -1.2318293e-06 5.1629553e-39
1.3768843 1.704324 -1.1682511e-06 5.1629553e-39
1.3878143 1.7056065 -1.3113022e-06 5.1629553e-39
1.3973266 1.7055917 -1.2516975e-06 5.1629553e-39
1.4074134 1.7048264 -1.3113022e-06 5.1629553e-39
1.4150261 1.7042484 -1.1920929e-06 5.1629553e-39
1.4221752 1.7044239 -1.1920929e-06 5.1629553e-39
1.4334828 1.7057288 -1.1920929e-06 5.1629553e-39
1.4433255 1.7057141 -1.3311704e-06 5.1629553e-39
1.4537638 1.704936 -1.2516975e-06 5.1629553e-39
1.4644097 1.7039282 -0.00052417477 5.1629553e-39
1.4748826 1.7051889 -1.0728836e-06 5.1629553e-39
1.4861017 1.7054617 -1.1205673e-06 5.1629553e-39
1.4963318 1.7054458 -1.0728836e-06 5.1629553e-39
1.5071826 1.7046514 -1.0728836e-06 5.1629553e-39
1.5153741 1.7040516 -1.3113022e-06 5.1629553e-39
1.5236193 1.7053078 -1.1920929e-06 5.1629553e-39
1.5352411 1.7055862 -1.2636185e-06 5.1629553e-39
1.5458398 1.7055703 -1.1324883e-06 5.1629553e-39
1.5571616 1.705313 -0.00050077908 5.1629553e-39
1.5655719 1.7041517 -1.1920929e-06 5.1629553e-39
1.5741173 1.7054311 -1.1324883e-06 5.1629553e-39
1.5855882 1.7046142 -1.1324883e-06 5.1629553e-39
1.5942491 1.7059041 -1.0728836e-06 5.1629553e-39
1.6029686 1.705289 -1.1324883e-06 5.1629553e-39
1.6147584 1.7043455 -0.00045239812 5.1629553e-39
1.6264744 1.7055588 -1.1324883e-06 5.1629553e-39
1.6353855 1.7049361 -1.1920929e-06 5.1629553e-39
1.6449573 1.7054325 -1.1444092e-06 5.1629553e-39
1.6564031 1.7054154 -1.1324883e-06 5.1629553e-39
1.6654993 1.7047857 -1.1920929e-06 5.1629553e-39
1.6746587 1.7041515 -1.1722246e-06 5.1629553e-39
1.683869 1.7054806 -1.1920929e-06 5.1629553e-39
1.6931436 1.7048446 -1.0728836e-06 5.1629553e-39
1.7062218 1.7051382 -1.2397766e-06 5.1629553e-39
1.7150017 1.7053337 -1.3113022e-06 5.1629553e-39
1.7244734 1.7046906 -1.3311704e-06 5.1629553e-39
1.7339982 1.7040439 -1.1920929e-06 5.1629553e-39
1.7435908 1.705399 -1.3113022e-06 5.1629553e-39
1.7564721 1.7045331 -1.3709068e-06 5.1629553e-39
1.7662019 1.7059003 -1.3113022e-06 5.1629553e-39
1.7760016 1.705248 -1.3113022e-06 5.1629553e-39
1.7860501 1.7035668 -0.0016058723 5.1629553e-39
1.7951212 1.7047927 -1.3589859e-06 5.1629553e-39
1.8057694 1.7053144 -1.3113022e-06 5.1629553e-39
1.8158265 1.7046516 -1.3709068e-06 5.1629553e-39
1.8259423 1.7039849 -1.3113022e-06 5.1629553e-39
1.836132 1.7053814 -1.3709068e-06 5.1629553e-39
1.8463817 1.7047129 -1.4305115e-06 5.1629553e-39
1.8532548 1.7042643 -1.3113022e-06 5.1629553e-39
1.8636254 1.7056742 -1.3113022e-06 5.1629553e-39
1.8740575 1.7050008 -1.4305115e-06 5.1629553e-39
1.8845668 1.7043221 -1.3709068e-06 5.1629553e-39
1.8951389 1.7057467 -1.3113022e-06 5.1629553e-39
1.90579 1.7050662 -1.4305115e-06 5.1629553e-39
1.916505 1.7043813 -1.3113022e-06 5.1629553e-39
1.9236914 1.7060486 -1.4305115e-06 5.1629553e-39
1.9345357 1.7053628 -1.3709068e-06 5.1629553e-39
1.9454458 1.7046727 -1.1920929e-06 5.1629553e-39
1.9527634 1.7042102 -1.4305115e-06 5.1629553e-39
1.964545 1.704758 -1.3113022e-06 5.1629553e-39
1.9749171 1.7049695 -1.3113022e-06 5.1629553e-39
1.9853643 1.705184 -1.4305115e-06 5.1629553e-39
1.9973775 1.7057395 -1.4305115e-06 5.1629553e-39
2.0049336 1.7052717 -1.4305115e-06 5.1629553e-39
2.0125246 1.7048018 -1.3113022e-06 5.1629553e-39
2.023982 1.7040925 -1.3113022e-06 5.1629553e-39
2.0355105 1.7055796 -1.4305115e-06 5.1629553e-39
2.0432439 1.7051059 -1.3113022e-06 5.1629553e-39
2.0541368 1.7053255 -1.3113022e-06 5.1629553e-39
2.0666635 1.7058933 -1.4305115e-06 5.1629553e-39
2.0745437 1.705416 -1.4305115e-06 5.1629553e-39
2.0824611 1.7049363 -1.3113022e-06 5.1629553e-39
2.0944128 1.7042124 -1.4305115e-06 5.1629553e-39
1.2082584 1.7100387 -1.0728836e-06 5.1629553e-39
1.2155104 1.7138733 -1.3113022e-06 5.1629553e-39
1.2235349 1.7154595 -1.3113022e-06 5.1629553e-39
1.2345645 1.7146077 -1.3113022e-06 5.1629553e-39
1.2456855 1.7137491 -1.2516975e-06 5.1629553e-39
1.2546562 1.7164183 -1.1920929e-06 5.1629553e-39
1.2636913 1.7157327 -1.2715658e-06 5.1629553e-39
1.2750796 1.7148683 -1.2318293e-06 5.1629553e-39
1.2865639 1.7139969 -1.2516975e-06 5.1629553e-39
1.2958289 1.7150038 -1.2516975e-06 5.1629553e-39
1.3051616 1.7160149 -1.2516975e-06 5.1629553e-39
1.3145621 1.715314 -1.2516975e-06 5.1629553e-39
1.3240317 1.7146082 -1.2516975e-06 5.1629553e-39
1.3335708 1.7138968 -1.2516975e-06 5.1629553e-39
1.3436626 1.7159296 -1.3113022e-06 5.1629553e-39
1.352861 1.7159514 -1.2914339e-06 5.1629553e-39
1.3650669 1.7150578 -1.2318293e-06 5.1629553e-39
1.3773793 1.714156 -1.1920929e-06 5.1629553e-39
1.386817 1.7141736 -1.3113022e-06 5.1629553e-39
1.3973266 1.7162472 -1.2516975e-06 5.1629553e-39
1.4074134 1.7155223 -1.3113022e-06 5.1629553e-39
1.4150261 1.7149749 -1.1920929e-06 5.1629553e-39
1.4226872 1.7144243 -1.1920929e-06 5.1629553e-39
1.4324509 1.7144426 -1.1920929e-06 5.1629553e-39
1.4438454 1.7157949 -1.3589859e-06 5.1629553e-39
1.4537636 1.7158171 -1.2516975e-06 5.1629553e-39
1.4642825 1.7150749 -1.2119611e-06 5.1629553e-39
1.4748826 1.7143267 -1.0728836e-06 5.1629553e-39
1.4850293 1.7143453 -1.1444092e-06 5.1629553e-39
1.4968723 1.7157236 -1.0728836e-06 5.1629553e-39
1.5071826 1.7157458 -1.0728836e-06 5.1629553e-39
1.5153741 1.7151788 -1.3113022e-06 5.1629553e-39
1.5236193 1.7146081 -1.1920929e-06 5.1629553e-39
1.5341301 1.714628 -1.2397766e-06 5.1629553e-39
1.5458398 1.7149444 -1.1324883e-06 5.1629553e-39
1.5576475 1.7152653 -1.0728836e-06 5.1629553e-39
1.5655719 1.7154795 -1.1920929e-06 5.1629553e-39
1.573754 1.7143487 -0.00047759613 5.1629553e-39
1.5855881 1.7141205 -1.1324883e-06 5.1629553e-39
1.5942491 1.7154393 -1.0728836e-06 5.1629553e-39
1.6029687 1.714853 -1.1324883e-06 5.1629553e-39
1.6152611 1.7151802 -1.0728836e-06 5.1629553e-39
1.6264744 1.7152013 -1.1324883e-06 5.1629553e-39
1.6353855 1.7146082 -1.1920929e-06 5.1629553e-39
1.6437576 1.7148278 -1.1205673e-06 5.1629553e-39
1.6564031 1.7151575 -1.1324883e-06 5.1629553e-39
1.6654993 1.714558 -1.1920929e-06 5.1629553e-39
1.675271 1.7150917 -1.1920929e-06 5.1629553e-39
1.6838692 1.7153143 -1.1920929e-06 5.1629553e-39
1.6931437 1.7147092 -1.0927519e-06 5.1629553e-39
1.7049711 1.7147309 -1.1444092e-06 5.1629553e-39
1.7160412 1.715466 -0.0022980531 5.1629553e-39
1.7244732 1.7146592 -1.3709068e-06 5.1629553e-39
1.7339983 1.7140443 -1.4305115e-06 5.1629553e-39
1.7435908 1.7154312 -1.3113022e-06 5.1629553e-39
1.7564721 1.7146081 -1.3709068e-06 5.1629553e-39
1.7662019 1.7160077 -1.3113022e-06 5.1629553e-39
1.7760016 1.7153881 -1.3113022e-06 5.1629553e-39
1.7858576 1.7147648 -1.3113022e-06 5.1629553e-39
1.795785 1.7141371 -1.3709068e-06 5.1629553e-39
1.8057694 1.7155536 -1.3113022e-06 5.1629553e-39
1.8158268 1.7149243 -1.3709068e-06 5.1629553e-39
1.8259424 1.7142911 -1.3113022e-06 5.1629553e-39
1.836132 1.7157216 -1.3709068e-06 5.1629553e-39
1.8463817 1.7150872 -1.4305115e-06 5.1629553e-39
1.8532548 1.7146616 -1.3113022e-06 5.1629553e-39
1.8636253 1.7140195 -1.3113022e-06 5.1629553e-39
1.8740574 1.7154671 -1.4305115e-06 5.1629553e-39
1.8845669 1.7148236 -1.3709068e-06 5.1629553e-39
1.8951389 1.7162833 -1.3113022e-06 5.1629553e-39
1.9057901 1.7156383 -1.4305115e-06 5.1629553e-39
1.916505 1.7149891 -1.3113022e-06 5.1629553e-39
1.9236914 1.7145538 -1.4305115e-06 5.1629553e-39
1.9345357 1.713897 -1.3709068e-06 5.1629553e-39
1.9454457 1.7153767 -1.1920929e-06 5.1629553e-39
1.9527634 1.7149385 -1.4305115e-06 5.1629553e-39
1.9633626 1.7146894 -0.00063763169 5.1629553e-39
1.9749171 1.7157717 -1.3113022e-06 5.1629553e-39
1.986113 1.7151084 -1.4305115e-06 5.1629553e-39
1.9973775 1.7144411 -1.4305115e-06 5.1629553e-39
2.0049336 1.7139933 -1.4305115e-06 5.1629553e-39
2.0125246 1.7135437 -1.3113022e-06 5.1629553e-39
2.023982 1.715058 -1.3113022e-06 5.1629553e-39
2.0355105 1.7165835 -1.4305115e-06 5.1629553e-39
2.0432439 1.7161355 -1.3113022e-06 5.1629553e-39
2.0549171 1.7154596 -1.3113022e-06 5.1629553e-39
2.0666635 1.7147793 -1.4305115e-06 5.1629553e-39
2.0745437 1.7143229 -1.4305115e-06 5.1629553e-39
2.0843773 1.7154365 -0.0012270572 5.1629553e-39
2.0952122 1.7144716 -1.4305115e-06 5.1629553e-39
1.2257305 1.7219368 -1.3113022e-06 5.1629553e-39
1.235118 1.7241569 -1.3113022e-06 5.1629553e-39
1.2456855 1.7237991 -1.2516975e-06 5.1629553e-39
1.2551063 1.7257999 -1.1920929e-06 5.1629553e-39
1.2636913 1.7258548 -1.3113022e-06 5.1629553e-39
1.2750795 1.7250358 -1.2318293e-06 5.1629553e-39
1.2865639 1.7242104 -1.2516975e-06 5.1629553e-39
1.295364 1.7242616 -1.2636185e-06 5.1629553e-39
1.3048953 1.7261212 -0.00011065845 5.1629553e-39
1.3145621 1.725639 -1.2516975e-06 5.1629553e-39
1.3240317 1.7249709 -1.2516975e-06 5.1629553e-39
1.3335708 1.7242979 -1.2516975e-06 5.1629553e-39
1.3426982 1.7243506 -1.3113022e-06 5.1629553e-39
1.3533471 1.7256981 -1.3113022e-06 5.1629553e-39
1.3650669 1.7255845 -1.2318293e-06 5.1629553e-39
1.3773794 1.724732 -1.2119611e-06 5.1629553e-39
1.3873156 1.7240442 -1.3113022e-06 5.1629553e-39
1.3973266 1.725127 -1.2516975e-06 5.1629553e-39
1.4074135 1.7262181 -1.3113022e-06 5.1629553e-39
1.4152914 1.7256231 -0.0010185258 5.1629553e-39
1.4237119 1.7246144 -3.3427412e-05 5.1629553e-39
1.4329668 1.724483 -1.1920929e-06 5.1629553e-39
1.4428056 1.7245384 -1.3828278e-06 5.1629553e-39
1.4537637 1.7248846 -1.2516975e-06 5.1629553e-39
1.464486 1.7255517 -0.00073985249 5.1629553e-39
1.4748827 1.7252923 -1.11262e-06 5.1629553e-39
1.4855655 1.7245809 -1.1324883e-06 5.1629553e-39
1.4957916 1.7246377 -1.0728836e-06 5.1629553e-39
1.5071826 1.7249911 -1.0728836e-06 5.1629553e-39
1.5153741 1.7244514 -1.3113022e-06 5.1629553e-39
1.5236193 1.725768 -1.1920929e-06 5.1629553e-39
1.5346856 1.7250462 -1.2516975e-06 5.1629553e-39
1.5458398 1.7243184 -1.1324883e-06 5.1629553e-39
1.5565188 1.7243755 -1.0728836e-06 5.1629553e-39
1.5655719 1.7249191 -1.1920929e-06 5.1629553e-39
1.5746886 1.7254677 -1.1444092e-06 5.1629553e-39
1.5855881 1.7255279 -1.1324883e-06 5.1629553e-39
1.5942491 1.7249745 -1.0728836e-06 5.1629553e-39
1.6029686 1.7244172 -1.1324883e-06 5.1629553e-39
1.6140859 1.7244756 -1.0728836e-06 5.1629553e-39
1.6264744 1.7248436 -1.1324883e-06 5.1629553e-39
1.6353855 1.7242802 -1.1920929e-06 5.1629553e-39
1.6443577 1.7256532 -1.1324883e-06 5.1629553e-39
1.6564031 1.7248994 -1.1324883e-06 5.1629553e-39
1.6654993 1.7243303 -1.1920929e-06 5.1629553e-39
1.6740463 1.7245804 -1.1920929e-06 5.1629553e-39
1.6838692 1.7251476 -1.1920929e-06 5.1629553e-39
1.6931436 1.7245734 -1.1324883e-06 5.1629553e-39
1.7055963 1.7257837 -1.1324883e-06 5.1629553e-39
1.7150017 1.7252077 -1.3113022e-06 5.1629553e-39
1.724473 1.7246276 -1.2318293e-06 5.1629553e-39
1.7339983 1.7240444 -1.4305115e-06 5.1629553e-39
1.743591 1.7254634 -1.3113022e-06 5.1629553e-39
1.7564721 1.7246832 -1.3709068e-06 5.1629553e-39
1.7662019 1.7240937 -1.3113022e-06 5.1629553e-39
1.7760016 1.7255282 -1.3113022e-06 5.1629553e-39
1.7858576 1.7249376 -1.3113022e-06 5.1629553e-39
1.7957848 1.7243429 -1.3709068e-06 5.1629553e-39
1.8057694 1.7257926 -1.3113022e-06 5.1629553e-39
1.8158265 1.7251968 -1.3709068e-06 5.1629553e-39
1.8259423 1.7245975 -1.3113022e-06 5.1629553e-39
1.836132 1.7239938 -1.3709068e-06 5.1629553e-39
1.8463817 1.7254615 -1.4305115e-06 5.1629553e-39
1.8532548 1.7250587 -1.3113022e-06 5.1629553e-39
1.8636252 1.7244512 -1.3113022e-06 5.1629553e-39
1.8740575 1.7259336 -1.4305115e-06 5.1629553e-39
1.8845669 1.7253249 -1.3709068e-06 5.1629553e-39
1.8951389 1.7247126 -1.3113022e-06 5.1629553e-39
1.9057901 1.7240958 -1.4305115e-06 5.1629553e-39
1.916505 1.7255968 -1.3113022e-06 5.1629553e-39
1.9236914 1.7251855 -1.4305115e-06 5.1629553e-39
1.9345359 1.7245646 -1.3709068e-06 5.1629553e-39
1.9454459 1.7260809 -1.4305115e-06 5.1629553e-39
1.9527634 1.7256669 -1.4305115e-06 5.1629553e-39
1.9638066 1.7250419 -1.3113022e-06 5.1629553e-39
1.9765617 1.7259666 -0.001708271 5.1629553e-39
1.986113 1.7237799 -1.4305115e-06 5.1629553e-39
1.9973775 1.725318 -1.4305115e-06 5.1629553e-39
2.0049336 1.7248955 -1.4305115e-06 5.1629553e-39
2.0125246 1.7244707 -1.3113022e-06 5.1629553e-39
2.023982 1.7260234 -1.3113022e-06 5.1629553e-39
2.0355105 1.7253864 -1.4305115e-06 5.1629553e-39
2.0432439 1.7249591 -1.3113022e-06 5.1629553e-39
2.0549171 1.7243142 -1.3113022e-06 5.1629553e-39
2.0666635 1.7236652 -1.4305115e-06 5.1629553e-39
2.0745437 1.7254566 -1.4305115e-06 5.1629553e-39
2.0824611 1.7250242 -1.3113022e-06 5.1629553e-39
2.0904162 1.7245903 -1.4305115e-06 5.1629553e-39
1.2389972 1.730971 -1.3113022e-06 5.1629553e-39
1.2461325 1.7331488 -1.2636185e-06 5.1629553e-39
1.2546562 1.7349105 -1.1920929e-06 5.1629553e-39
1.2636913 1.7359766 -1.3113022e-06 5.1629553e-39
1.2750797 1.7352034 -1.2318293e-06 5.1629553e-39
1.286564 1.7344236 -1.3113022e-06 5.1629553e-39
1.2958289 1.7337943 -1.2516975e-06 5.1629553e-39
1.30563 1.7358736 -1.2636185e-06 5.1629553e-39
1.3145621 1.7359642 -1.2516975e-06 5.1629553e-39
1.3240317 1.7353338 -1.2516975e-06 5.1629553e-39
1.3335708 1.7346989 -1.2516975e-06 5.1629553e-39
1.3431803 1.7340593 -1.3113022e-06 5.1629553e-39
1.3528181 1.7349159 -0.00099994719 5.1629553e-39
1.365067 1.7361112 -1.2318293e-06 5.1629553e-39
1.3773794 1.7353081 -1.2516975e-06 5.1629553e-39
1.3873156 1.7346598 -1.3113022e-06 5.1629553e-39
1.3973266 1.7340068 -1.2516975e-06 5.1629553e-39
1.4074134 1.7351315 -1.3113022e-06 5.1629553e-39
1.4150261 1.7346399 -1.1920929e-06 5.1629553e-39
1.4226872 1.735938 -1.1920929e-06 5.1629553e-39
1.4329668 1.7352811 -1.1920929e-06 5.1629553e-39
1.4433254 1.7346191 -1.3709068e-06 5.1629553e-39
1.4537636 1.7339522 -1.2516975e-06 5.1629553e-39
1.4642825 1.7351005 -1.2516975e-06 5.1629553e-39
1.4754148 1.7354939 -1.1205673e-06 5.1629553e-39
1.4855657 1.7355891 -1.1722246e-06 5.1629553e-39
1.4963318 1.7349154 -1.0728836e-06 5.1629553e-39
1.5071826 1.7342364 -1.0728836e-06 5.1629553e-39
1.5153741 1.733724 -1.3113022e-06 5.1629553e-39
1.5236193 1.7350681 -1.1920929e-06 5.1629553e-39
1.5352411 1.7354701 -1.2636185e-06 5.1629553e-39
1.5458398 1.7355671 -1.1324883e-06 5.1629553e-39
1.5570831 1.7348787 -1.0728836e-06 5.1629553e-39
1.5655719 1.7343588 -1.1920929e-06 5.1629553e-39
1.5732869 1.7344111 -0.00025979755 5.1629553e-39
1.5855882 1.7350342 -1.1324883e-06 5.1629553e-39
1.5942491 1.7345096 -1.0728836e-06 5.1629553e-39
1.6029686 1.7358943 -1.1722246e-06 5.1629553e-39
1.6146735 1.7351929 -1.0728836e-06 5.1629553e-39
1.6264744 1.7344861 -1.1324883e-06 5.1629553e-39
1.6353855 1.7339522 -1.1920929e-06 5.1629553e-39
1.6443576 1.735355 -1.1324883e-06 5.1629553e-39
1.6564031 1.7346414 -1.1324883e-06 5.1629553e-39
1.6654993 1.7360569 -1.1920929e-06 5.1629553e-39
1.6746587 1.7355204 -1.1920929e-06 5.1629553e-39
1.6838692 1.7349811 -1.1920929e-06 5.1629553e-39
1.6931437 1.7344376 -1.1324883e-06 5.1629553e-39
1.7055964 1.7356894 -1.1324883e-06 5.1629553e-39
1.7150017 1.7351446 -1.3113022e-06 5.1629553e-39
1.724473 1.7345961 -1.1920929e-06 5.1629553e-39
1.7339981 1.7340447 -1.2516975e-06 5.1629553e-39
1.7444665 1.7352337 -0.00060507393 5.1629553e-39
1.7564721 1.7347583 -1.3709068e-06 5.1629553e-39
1.7662021 1.7342014 -1.4305115e-06 5.1629553e-39
1.7760016 1.7356683 -1.3411045e-06 5.1629553e-39
1.7858576 1.7351105 -1.3113022e-06 5.1629553e-39
1.795785 1.7345489 -1.3709068e-06 5.1629553e-39
1.8057694 1.733984 -1.3113022e-06 5.1629553e-39
1.8158265 1.7354695 -1.3709068e-06 5.1629553e-39
1.8259424 1.7349037 -1.3113022e-06 5.1629553e-39
1.836132 1.7343339 -1.3709068e-06 5.1629553e-39
1.8463817 1.7358358 -1.4305115e-06 5.1629553e-39
1.8532548 1.735456 -1.3113022e-06 5.1629553e-39
1.8636254 1.7348831 -1.3113022e-06 5.1629553e-39
1.8740575 1.7343067 -1.4305115e-06 5.1629553e-39
1.8852695 1.7349488 -1.3828278e-06 5.1629553e-39
1.8951389 1.7352492 -1.3113022e-06 5.1629553e-39
1.90579 1.7346679 -1.4305115e-06 5.1629553e-39
1.916505 1.7362044 -1.3113022e-06 5.1629553e-39
1.9236914 1.7358172 -1.4305115e-06 5.1629553e-39
1.9345357 1.7352322 -1.3709068e-06 5.1629553e-39
1.9454459 1.7346442 -1.4305115e-06 5.1629553e-39
1.9527634 1.7342496 -1.4305115e-06 5.1629553e-39
1.9645344 1.7349133 -0.0010708667 5.1629553e-39
1.9749171 1.7352155 -1.3113022e-06 5.1629553e-39
1.986113 1.7346193 -1.4305115e-06 5.1629553e-39
1.996466 1.7348408 -0.002302347 5.1629553e-39
2.0049336 1.7357974 -1.4305115e-06 5.1629553e-39
2.0125246 1.7353982 -1.3113022e-06 5.1629553e-39
2.023982 1.7347957 -1.3113022e-06 5.1629553e-39
2.0355105 1.7341895 -1.4305115e-06 5.1629553e-39
2.0432439 1.7337828 -1.3113022e-06 5.1629553e-39
2.0556977 1.7344576 -1.3113022e-06 5.1629553e-39
2.0666635 1.7347727 -1.4305115e-06 5.1629553e-39
2.0745437 1.7365904 -1.4305115e-06 5.1629553e-39
2.0824611 1.7339524 -1.3113022e-06 5.1629553e-39
1.2546562 1.7416344 -1.1920929e-06 5.1629553e-39
1.2641447 1.7453953 -1.3113022e-06 5.1629553e-39
1.2750796 1.7453706 -1.2318293e-06 5.1629553e-39
1.286564 1.744637 -1.3113022e-06 5.1629553e-39
1.2958291 1.7440449 -1.3113022e-06 5.1629553e-39
1.3046932 1.7441647 -1.2397766e-06 5.1629553e-39
1.3145621 1.7462893 -1.2516975e-06 5.1629553e-39
1.3240317 1.7456967 -1.2516975e-06 5.1629553e-39
1.3335708 1.7450999 -1.2516975e-06 5.1629553e-39
1.343592 1.7444645 -0.00014685649 5.1629553e-39
1.352861 1.743893 -1.3113022e-06 5.1629553e-39
1.3657678 1.7455934 -1.2261527e-06 5.1629553e-39
1.3773794 1.7458839 -1.2516975e-06 5.1629553e-39
1.3873156 1.7452755 -1.3113022e-06 5.1629553e-39
1.3973266 1.7446626 -1.3113022e-06 5.1629553e-39
1.4074134 1.7440448 -1.3113022e-06 5.1629553e-39
1.4150261 1.7435786 -1.1920929e-06 5.1629553e-39
1.4226872 1.7449021 -1.1920929e-06 5.1629553e-39
1.4329668 1.746079 -1.1920929e-06 5.1629553e-39
1.4433255 1.7454586 -1.3709068e-06 5.1629553e-39
1.4545462 1.7454851 -0.0012068728 5.1629553e-39
1.4642825 1.7442031 -1.2516975e-06 5.1629553e-39
1.4743507 1.7443316 -1.1444092e-06 5.1629553e-39
1.4855657 1.7447627 -1.1920929e-06 5.1629553e-39
1.4963318 1.7459666 -1.0728836e-06 5.1629553e-39
1.5071826 1.7453308 -1.0927519e-06 5.1629553e-39
1.5153741 1.7448511 -1.3113022e-06 5.1629553e-39
1.5236193 1.7443681 -1.1920929e-06 5.1629553e-39
1.53413 1.7445002 -1.2397766e-06 5.1629553e-39
1.5458398 1.7449411 -1.1324883e-06 5.1629553e-39
1.5576475 1.7453878 -1.0728836e-06 5.1629553e-39
1.5655719 1.7456864 -1.1920929e-06 5.1629553e-39
1.5741175 1.7451972 -1.1324883e-06 5.1629553e-39
1.5855881 1.7445406 -1.1324883e-06 5.1629553e-39
1.5942491 1.7440447 -1.0728836e-06 5.1629553e-39
1.6029688 1.7454586 -1.1920929e-06 5.1629553e-39
1.6146736 1.744796 -1.1324883e-06 5.1629553e-39
1.6270669 1.7452532 -1.1444092e-06 5.1629553e-39
1.6353855 1.7455587 -1.1920929e-06 5.1629553e-39
1.6443576 1.745057 -1.1324883e-06 5.1629553e-39
1.6564031 1.7443835 -1.1324883e-06 5.1629553e-39
1.6654993 1.7458293 -1.1920929e-06 5.1629553e-39
1.6746588 1.7453232 -1.1920929e-06 5.1629553e-39
1.6838692 1.7448144 -1.1920929e-06 5.1629553e-39
1.6931436 1.7443019 -1.1324883e-06 5.1629553e-39
1.7055963 1.745595 -1.1324883e-06 5.1629553e-39
1.7146164 1.7449062 -0.00062374084 5.1629553e-39
1.7244731 1.7445647 -1.1920929e-06 5.1629553e-39
1.7339979 1.7440448 -1.0728836e-06 5.1629553e-39
1.7435907 1.7455277 -1.2814999e-06 5.1629553e-39
1.7564721 1.7448334 -1.3709068e-06 5.1629553e-39
1.7662021 1.7443087 -1.4305115e-06 5.1629553e-39
1.7766567 1.744963 -1.3828278e-06 5.1629553e-39
1.7858576 1.7452835 -1.3113022e-06 5.1629553e-39
1.7957848 1.7447548 -1.3709068e-06 5.1629553e-39
1.8057694 1.7442231 -1.3113022e-06 5.1629553e-39
1.8158267 1.745742 -1.3709068e-06 5.1629553e-39
1.8259423 1.7452101 -1.3113022e-06 5.1629553e-39
1.836132 1.7446741 -1.3709068e-06 5.1629553e-39
1.8463817 1.7441353 -1.4305115e-06 5.1629553e-39
1.8532548 1.7437737 -1.3113022e-06 5.1629553e-39
1.8636254 1.7453146 -1.3113022e-06 5.1629553e-39
1.8740574 1.744773 -1.4305115e-06 5.1629553e-39
1.883864 1.745105 -1.3589859e-06 5.1629553e-39
1.8951389 1.7457857 -1.3113022e-06 5.1629553e-39
1.9057901 1.7452399 -1.4305115e-06 5.1629553e-39
1.916505 1.7446907 -1.3113022e-06 5.1629553e-39
1.9236914 1.7443224 -1.4305115e-06 5.1629553e-39
1.935261 1.745011 -1.3828278e-06 5.1629553e-39
1.9454459 1.7453481 -1.4305115e-06 5.1629553e-39
1.9527634 1.744978 -1.4305115e-06 5.1629553e-39
1.9630682 1.7453188 -1.3589859e-06 5.1629553e-39
1.9749171 1.7460176 -1.3113022e-06 5.1629553e-39
1.986113 1.7454586 -1.4305115e-06 5.1629553e-39
1.9973775 1.7448962 -1.4305115e-06 5.1629553e-39
2.0049336 1.744519 -1.4305115e-06 5.1629553e-39
2.0125246 1.74414 -1.3113022e-06 5.1629553e-39
2.0247481 1.7448471 -1.3113022e-06 5.1629553e-39
2.0355105 1.7451931 -1.4305115e-06 5.1629553e-39
2.0432439 1.7448124 -1.3113022e-06 5.1629553e-39
2.0541365 1.7451622 -1.3113022e-06 5.1629553e-39
2.0666635 1.7458801 -1.4305115e-06 5.1629553e-39
2.0745437 1.7454972 -1.4305115e-06 5.1629553e-39
2.0824611 1.7473445 -1.3113022e-06 5.1629553e-39
2.1145096 1.7458085 -1.3113022e-06 5.1629553e-39
2.1226177 1.7476788 -1.5497208e-06 5.1629553e-39
2.1348577 1.7471002 -1.3709068e-06 5.1629553e-39
2.1471765 1.7487931 -1.3113022e-06 5.1629553e-39
1.2766044 1.7543181 -1.2516975e-06 5.1629553e-39
1.286564 1.7548503 -1.3113022e-06 5.1629553e-39
1.2958291 1.7542952 -1.3113022e-06 5.1629553e-39
1.3051616 1.7537359 -1.2516975e-06 5.1629553e-39
1.3150339 1.7558992 -1.3113022e-06 5.1629553e-39
1.3240317 1.7560596 -1.2516975e-06 5.1629553e-39
1.3335708 1.7555009 -1.2516975e-06 5.1629553e-39
1.3431803 1.754938 -1.3113022e-06 5.1629553e-39
1.352861 1.754371 -1.3113022e-06 5.1629553e-39
1.3644538 1.7541312 -1.2367964e-06 5.1629553e-39
1.3778744 1.7557272 -1.2636185e-06 5.1629553e-39
1.3873156 1.7558912 -1.3113022e-06 5.1629553e-39
1.3973268 1.7553183 -1.3113022e-06 5.1629553e-39
1.4074135 1.7547407 -1.3113022e-06 5.1629553e-39
1.4150261 1.7543049 -1.1920929e-06 5.1629553e-39
1.4226872 1.7538663 -1.1920929e-06 5.1629553e-39
1.4329668 1.7550774 -1.1920929e-06 5.1629553e-39
1.4438455 1.7555469 -1.3589859e-06 5.1629553e-39
1.4537636 1.7557143 -1.2516975e-06 5.1629553e-39
1.4642825 1.7551261 -1.2516975e-06 5.1629553e-39
1.4748827 1.7545333 -1.1324883e-06 5.1629553e-39
1.485564 1.7540407 -0.00017710592 5.1629553e-39
1.4963319 1.7551757 -1.0728836e-06 5.1629553e-39
1.5077273 1.7556568 -1.1444092e-06 5.1629553e-39
1.5153741 1.7559782 -1.3113022e-06 5.1629553e-39
1.5236193 1.7555281 -1.1920929e-06 5.1629553e-39
1.5346856 1.7549242 -1.2516975e-06 5.1629553e-39
1.5458398 1.7543153 -1.1324883e-06 5.1629553e-39
1.5565188 1.7544858 -1.0728836e-06 5.1629553e-39
1.5655719 1.7551261 -1.1920929e-06 5.1629553e-39
1.5741174 1.7546654 -1.1324883e-06 5.1629553e-39
1.5855881 1.7559482 -1.1324883e-06 5.1629553e-39
1.5942491 1.7554868 -1.0728836e-06 5.1629553e-39
1.6029688 1.7550226 -1.1920929e-06 5.1629553e-39
1.6146736 1.7543992 -1.1920929e-06 5.1629553e-39
1.6258819 1.7545745 -1.1682511e-06 5.1629553e-39
1.6353855 1.7552308 -1.1920929e-06 5.1629553e-39
1.6443574 1.7547588 -1.1324883e-06 5.1629553e-39
1.6570078 1.7552639 -1.1444092e-06 5.1629553e-39
1.6654993 1.7556015 -1.1920929e-06 5.1629553e-39
1.6746588 1.755126 -1.1920929e-06 5.1629553e-39
1.6838692 1.7546479 -1.1920929e-06 5.1629553e-39
1.6931437 1.7541661 -1.1324883e-06 5.1629553e-39
1.7055963 1.7555008 -1.1324883e-06 5.1629553e-39
1.7150017 1.7550187 -1.3113022e-06 5.1629553e-39
1.724473 1.7545333 -1.1920929e-06 5.1629553e-39
1.7339979 1.754045 -1.0728836e-06 5.1629553e-39
1.7435907 1.7555599 -1.2516975e-06 5.1629553e-39
1.7564721 1.7549082 -1.3311704e-06 5.1629553e-39
1.7662021 1.7544161 -1.4305115e-06 5.1629553e-39
1.7753464 1.7547657 -1.3589859e-06 5.1629553e-39
1.7858576 1.7554562 -1.3113022e-06 5.1629553e-39
1.7957848 1.7549608 -1.3709068e-06 5.1629553e-39
1.8057694 1.7544622 -1.3113022e-06 5.1629553e-39
1.8164991 1.7551607 -1.3589859e-06 5.1629553e-39
1.8259424 1.7555164 -1.3113022e-06 5.1629553e-39
1.836132 1.7550144 -1.3709068e-06 5.1629553e-39
1.8463817 1.7545094 -1.4305115e-06 5.1629553e-39
1.8532548 1.7541709 -1.3113022e-06 5.1629553e-39
1.8636253 1.7557464 -1.3113022e-06 5.1629553e-39
1.8740575 1.7552395 -1.4305115e-06 5.1629553e-39
1.8845668 1.7547288 -1.3709068e-06 5.1629553e-39
1.8951389 1.754215 -1.3113022e-06 5.1629553e-39
1.9065021 1.754933 -1.4066696e-06 5.1629553e-39
1.9162513 1.756073 -0.0004145258 5.1629553e-39
1.9236914 1.754954 -1.4305115e-06 5.1629553e-39
1.9338106 1.7553234 -1.3589859e-06 5.1629553e-39
1.9454459 1.7560523 -1.4305115e-06 5.1629553e-39
1.9527634 1.7557063 -1.4305115e-06 5.1629553e-39
1.9638066 1.7551844 -1.3709068e-06 5.1629553e-39
1.9749171 1.7546593 -1.3113022e-06 5.1629553e-39
1.986113 1.7541302 -1.4305115e-06 5.1629553e-39
1.9973778 1.753598 -1.5497208e-06 5.1629553e-39
2.0049336 1.755421 -1.4305115e-06 5.1629553e-39
2.0125246 1.7550673 -1.3113022e-06 5.1629553e-39
2.0232158 1.7554474 -1.3113022e-06 5.1629553e-39
2.0355105 1.7561971 -1.4305115e-06 5.1629553e-39
2.0432439 1.7558417 -1.3113022e-06 5.1629553e-39
2.0549171 1.7553058 -1.3113022e-06 5.1629553e-39
2.0666635 1.7547662 -1.4305115e-06 5.1629553e-39
2.0745437 1.7544043 -1.4305115e-06 5.1629553e-39
2.0824611 1.7540405 -1.3113022e-06 5.1629553e-39
2.0930805 1.7543005 -1.4305115e-06 5.1629553e-39
2.1064401 1.7551872 -1.4305115e-06 5.1629553e-39
2.1145096 1.7548218 -1.3113022e-06 5.1629553e-39
2.1226177 1.7567137 -1.5497208e-06 5.1629553e-39
2.1348577 1.7561678 -1.3709068e-06 5.1629553e-39
2.1471765 1.7556183 -1.3113022e-06 5.1629553e-39
1.2869813 1.7632663 -0.0011572092 5.1629553e-39
1.2958291 1.7645454 -1.3113022e-06 5.1629553e-39
1.3051616 1.7640233 -1.2516975e-06 5.1629553e-39
1.3140905 1.7642132 -1.3113022e-06 5.1629553e-39
1.3245069 1.7657064 -1.2397766e-06 5.1629553e-39
1.3335708 1.7659022 -1.2914339e-06 5.1629553e-39
1.3431803 1.7653775 -1.3113022e-06 5.1629553e-39
1.352861 1.7648491 -1.3113022e-06 5.1629553e-39
1.365067 1.7641827 -1.2318293e-06 5.1629553e-39
1.3768845 1.7642435 -1.2397766e-06 5.1629553e-39
1.3878142 1.7657734 -1.3113022e-06 5.1629553e-39
1.3973268 1.7659737 -1.3113022e-06 5.1629553e-39
1.4074135 1.7654366 -1.3113022e-06 5.1629553e-39
1.4150261 1.7650312 -1.1920929e-06 5.1629553e-39
1.4226872 1.7646232 -1.1920929e-06 5.1629553e-39
1.4329668 1.7640758 -1.2318293e-06 5.1629553e-39
1.4428056 1.7642753 -1.3828278e-06 5.1629553e-39
1.4537637 1.7647818 -1.2516975e-06 5.1629553e-39
1.4642825 1.7660493 -1.2516975e-06 5.1629553e-39
1.4748827 1.7654988 -1.1324883e-06 5.1629553e-39
1.4860836 1.7648798 -0.00029545673 5.1629553e-39
1.4963318 1.7643851 -1.0728836e-06 5.1629553e-39
1.5066381 1.7645903 -1.1205673e-06 5.1629553e-39
1.5153741 1.7652509 -1.3113022e-06 5.1629553e-39
1.5236194 1.7648282 -1.1920929e-06 5.1629553e-39
1.5352411 1.7653542 -1.3113022e-06 5.1629553e-39
1.5458398 1.765564 -1.1324883e-06 5.1629553e-39
1.5564994 1.7656697 -0.00057597744 5.1629553e-39
1.5655719 1.7645658 -1.1920929e-06 5.1629553e-39
1.5741173 1.7641335 -1.1324883e-06 5.1629553e-39
1.5855882 1.7654545 -1.1324883e-06 5.1629553e-39
1.5942491 1.765022 -1.0728836e-06 5.1629553e-39
1.6029687 1.7645868 -1.1920929e-06 5.1629553e-39
1.6146736 1.765923 -1.1920929e-06 5.1629553e-39
1.6264744 1.7653418 -1.1920929e-06 5.1629553e-39
1.6353855 1.7649027 -1.1920929e-06 5.1629553e-39
1.6443576 1.7644609 -1.1920929e-06 5.1629553e-39
1.6553669 1.7648114 -0.0013996921 5.1629553e-39
1.6654993 1.7653738 -1.1920929e-06 5.1629553e-39
1.6746588 1.7649288 -1.1920929e-06 5.1629553e-39
1.6838692 1.7644813 -1.1920929e-06 5.1629553e-39
1.6937637 1.7651854 -1.1444092e-06 5.1629553e-39
1.7055963 1.7654065 -1.1324883e-06 5.1629553e-39
1.7150017 1.7649559 -1.3113022e-06 5.1629553e-39
1.724473 1.7645019 -1.1920929e-06 5.1629553e-39
1.7339979 1.7640452 -1.0728836e-06 5.1629553e-39
1.7435906 1.7655921 -1.2516975e-06 5.1629553e-39
1.7564719 1.7649832 -1.1920929e-06 5.1629553e-39
1.766202 1.7645236 -1.3709068e-06 5.1629553e-39
1.7766569 1.7652477 -1.3828278e-06 5.1629553e-39
1.7858576 1.7656292 -1.3113022e-06 5.1629553e-39
1.7957848 1.7651666 -1.3709068e-06 5.1629553e-39
1.8057694 1.7647014 -1.3113022e-06 5.1629553e-39
1.8151543 1.7650869 -1.3828278e-06 5.1629553e-39
1.8259425 1.7658228 -1.5497208e-06 5.1629553e-39
1.836132 1.7653545 -1.3709068e-06 5.1629553e-39
1.8463817 1.7648839 -1.4305115e-06 5.1629553e-39
1.8532548 1.7645681 -1.3113022e-06 5.1629553e-39
1.8636253 1.7640917 -1.3113022e-06 5.1629553e-39
1.8740574 1.7657061 -1.4305115e-06 5.1629553e-39
1.8845668 1.7652302 -1.3709068e-06 5.1629553e-39
1.8951389 1.7647516 -1.3113022e-06 5.1629553e-39
1.9050777 1.7651485 -1.4543533e-06 5.1629553e-39
1.916505 1.7659061 -1.3113022e-06 5.1629553e-39
1.9236914 1.7655857 -1.4305115e-06 5.1629553e-39
1.9345357 1.7651019 -1.3709068e-06 5.1629553e-39
1.9454459 1.7646154 -1.4305115e-06 5.1629553e-39
1.9527634 1.7642891 -1.4305115e-06 5.1629553e-39
1.9638066 1.7637966 -1.3709068e-06 5.1629553e-39
1.9749171 1.7654614 -1.3113022e-06 5.1629553e-39
1.9861131 1.7649697 -1.4305115e-06 5.1629553e-39
1.9973778 1.7644749 -1.5497208e-06 5.1629553e-39
2.0049336 1.7663231 -1.4305115e-06 5.1629553e-39
2.0125246 1.7659945 -1.3113022e-06 5.1629553e-39
2.023982 1.7654989 -1.3411045e-06 5.1629553e-39
2.0355105 1.7650001 -1.4305115e-06 5.1629553e-39
2.0432439 1.7646654 -1.3113022e-06 5.1629553e-39
2.0549171 1.7641604 -1.3113022e-06 5.1629553e-39
2.0666635 1.7636521 -1.4305115e-06 5.1629553e-39
2.0745437 1.7655379 -1.4305115e-06 5.1629553e-39
2.0824611 1.7652006 -1.3113022e-06 5.1629553e-39
2.0944128 1.7646917 -1.4305115e-06 5.1629553e-39
2.1064401 1.766427 -1.4305115e-06 5.1629553e-39
2.1145096 1.7660885 -1.3113022e-06 5.1629553e-39
2.1226177 1.7657487 -1.5497208e-06 5.1629553e-39
2.1348577 1.7652352 -1.3709068e-06 5.1629553e-39
2.1471765 1.7647188 -1.3113022e-06 5.1629553e-39
1.2981539 1.7712551 -1.3113022e-06 5.1629553e-39
1.3056298 1.7736013 -1.2636185e-06 5.1629553e-39
1.3145623 1.7738229 -1.3113022e-06 5.1629553e-39
1.3235565 1.7740475 -1.2636185e-06 5.1629553e-39
1.3335708 1.7763032 -1.3113022e-06 5.1629553e-39
1.3431803 1.7758168 -1.3113022e-06 5.1629553e-39
1.352861 1.7753271 -1.3113022e-06 5.1629553e-39
1.3650669 1.7747096 -1.2318293e-06 5.1629553e-39
1.3773794 1.7740866 -1.2516975e-06 5.1629553e-39
1.386817 1.7743175 -1.3113022e-06 5.1629553e-39
1.3973267 1.7748536 -1.3113022e-06 5.1629553e-39
1.4074134 1.7761326 -1.3113022e-06 5.1629553e-39
1.4150261 1.7757577 -1.1920929e-06 5.1629553e-39
1.4228343 1.7754246 -0.0011940189 5.1629553e-39
1.4329671 1.7748737 -1.2516975e-06 5.1629553e-39
1.4433255 1.7743635 -1.3709068e-06 5.1629553e-39
1.4537638 1.7738495 -1.2715658e-06 5.1629553e-39
1.4642825 1.7751517 -1.2516975e-06 5.1629553e-39
1.4754148 1.7757082 -1.1205673e-06 5.1629553e-39
1.4855657 1.7759522 -1.1920929e-06 5.1629553e-39
1.4963318 1.7754359 -1.0728836e-06 5.1629553e-39
1.5071826 1.7749161 -1.1324883e-06 5.1629553e-39
1.5153741 1.7745234 -1.3113022e-06 5.1629553e-39
1.5236193 1.7741283 -1.1920929e-06 5.1629553e-39
1.5341302 1.7743723 -1.3113022e-06 5.1629553e-39
1.5458398 1.7749381 -1.1920929e-06 5.1629553e-39
1.5576475 1.7755104 -1.0967254e-06 5.1629553e-39
1.5658484 1.7752578 -0.0014305578 5.1629553e-39
1.5741173 1.7754952 -1.1324883e-06 5.1629553e-39
1.5855881 1.7749606 -1.1324883e-06 5.1629553e-39
1.5942491 1.7745571 -1.0728836e-06 5.1629553e-39
1.6029688 1.774151 -1.1920929e-06 5.1629553e-39
1.6146736 1.775526 -1.1920929e-06 5.1629553e-39
1.6264744 1.7749842 -1.1920929e-06 5.1629553e-39
1.6353855 1.7745749 -1.1920929e-06 5.1629553e-39
1.6449573 1.7753006 -1.1920929e-06 5.1629553e-39
1.6564031 1.775558 -1.2516975e-06 5.1629553e-39
1.6654993 1.7751461 -1.1920929e-06 5.1629553e-39
1.6746587 1.7747315 -1.1920929e-06 5.1629553e-39
1.6838692 1.7743145 -1.1920929e-06 5.1629553e-39
1.6925236 1.7747128 -1.1205673e-06 5.1629553e-39
1.7055963 1.7753122 -1.1324883e-06 5.1629553e-39
1.7150017 1.7748928 -1.3113022e-06 5.1629553e-39
1.724473 1.7744704 -1.1920929e-06 5.1629553e-39
1.7339979 1.7740455 -1.0728836e-06 5.1629553e-39
1.7435907 1.7756242 -1.2516975e-06 5.1629553e-39
1.7564718 1.7750584 -1.1920929e-06 5.1629553e-39
1.7662019 1.7746309 -1.3113022e-06 5.1629553e-39
1.7753464 1.7750412 -1.3113022e-06 5.1629553e-39
1.7858576 1.775802 -1.3113022e-06 5.1629553e-39
1.7957848 1.7753726 -1.3709068e-06 5.1629553e-39
1.8057694 1.7749405 -1.3113022e-06 5.1629553e-39
1.8158265 1.7745054 -1.3709068e-06 5.1629553e-39
1.8259425 1.7740678 -1.5497208e-06 5.1629553e-39
1.836132 1.7756948 -1.4305115e-06 5.1629553e-39
1.8463817 1.7752581 -1.4305115e-06 5.1629553e-39
1.8532548 1.7749653 -1.3907751e-06 5.1629553e-39
1.8636254 1.7745234 -1.3113022e-06 5.1629553e-39
1.8740575 1.7761724 -1.4305115e-06 5.1629553e-39
1.8845669 1.7757316 -1.3709068e-06 5.1629553e-39
1.8951389 1.7752881 -1.3113022e-06 5.1629553e-39
1.9057901 1.7748415 -1.4305115e-06 5.1629553e-39
1.916505 1.7743921 -1.3113022e-06 5.1629553e-39
1.9236914 1.774091 -1.4305115e-06 5.1629553e-39
1.935261 1.7748873 -1.3828278e-06 5.1629553e-39
1.9454459 1.7753195 -1.4305115e-06 5.1629553e-39
1.9527634 1.7750174 -1.4305115e-06 5.1629553e-39
1.9638066 1.7745615 -1.3709068e-06 5.1629553e-39
1.9749171 1.7762635 -1.3113022e-06 5.1629553e-39
1.986113 1.7758089 -1.4305115e-06 5.1629553e-39
1.9973778 1.7753518 -1.5497208e-06 5.1629553e-39
2.0049336 1.7750447 -1.4305115e-06 5.1629553e-39
2.0125246 1.7747364 -1.3113022e-06 5.1629553e-39
2.023982 1.7742712 -1.3709068e-06 5.1629553e-39
2.0355105 1.7738031 -1.4305115e-06 5.1629553e-39
2.0432439 1.773489 -1.3709068e-06 5.1629553e-39
2.0529656 1.7741985 -1.3113022e-06 5.1629553e-39
2.0666635 1.7725382 -1.4305115e-06 5.1629553e-39
2.0745437 1.7744449 -1.4305115e-06 5.1629553e-39
2.0824611 1.7763608 -1.3113022e-06 5.1629553e-39
2.0904162 1.7760483 -1.4305115e-06 5.1629553e-39
2.1226177 1.7770424 -1.5497208e-06 5.1629553e-39
2.1307647 1.7744637 -1.3113022e-06 5.1629553e-39
1.3153485 1.781816 -1.3113022e-06 5.1629553e-39
1.3240316 1.7836943 -1.2516975e-06 5.1629553e-39
1.3335708 1.7849706 -1.3113022e-06 5.1629553e-39
1.3431803 1.7862563 -1.3113022e-06 5.1629553e-39
1.352861 1.7858052 -1.3113022e-06 5.1629553e-39
1.365067 1.7852364 -1.2450748e-06 5.1629553e-39
1.3773794 1.7846626 -1.2516975e-06 5.1629553e-39
1.3873156 1.7841997 -1.3113022e-06 5.1629553e-39
1.3973266 1.7837334 -1.3113022e-06 5.1629553e-39
1.4074135 1.7850459 -1.3113022e-06 5.1629553e-39
1.4150261 1.7846961 -1.1920929e-06 5.1629553e-39
1.4226872 1.786137 -1.1920929e-06 5.1629553e-39
1.4329671 1.7856718 -1.2516975e-06 5.1629553e-39
1.4433255 1.785203 -1.3709068e-06 5.1629553e-39
1.4537636 1.7847306 -1.3113022e-06 5.1629553e-39
1.4642825 1.7842544 -1.2516975e-06 5.1629553e-39
1.4743507 1.7845303 -1.1444092e-06 5.1629553e-39
1.4855657 1.7851255 -1.1920929e-06 5.1629553e-39
1.4963319 1.7846452 -1.0728836e-06 5.1629553e-39
1.5071827 1.7860104 -1.1324883e-06 5.1629553e-39
1.5153741 1.7856506 -1.3113022e-06 5.1629553e-39
1.5236193 1.7852885 -1.1920929e-06 5.1629553e-39
1.5346856 1.7848023 -1.3113022e-06 5.1629553e-39
1.5458398 1.7843122 -1.1920929e-06 5.1629553e-39
1.5565188 1.7845967 -1.1205673e-06 5.1629553e-39
1.5655719 1.7853332 -1.1920929e-06 5.1629553e-39
1.5741174 1.7849634 -1.1920929e-06 5.1629553e-39
1.5855882 1.784467 -1.1324883e-06 5.1629553e-39
1.5942491 1.7859993 -1.0728836e-06 5.1629553e-39
1.6029688 1.785628 -1.1920929e-06 5.1629553e-39
1.6146736 1.7851292 -1.1920929e-06 5.1629553e-39
1.6264744 1.7846265 -1.1920929e-06 5.1629553e-39
1.6353855 1.7842469 -1.1920929e-06 5.1629553e-39
1.6437578 1.7846673 -1.1920929e-06 5.1629553e-39
1.6564031 1.7853 -1.2516975e-06 5.1629553e-39
1.6654993 1.7849183 -1.1920929e-06 5.1629553e-39
1.6746588 1.7845343 -1.2516975e-06 5.1629553e-39
1.6838692 1.7841481 -1.1920929e-06 5.1629553e-39
1.6931437 1.7857322 -1.1722246e-06 5.1629553e-39
1.7055963 1.7852179 -1.1324883e-06 5.1629553e-39
1.7150017 1.7848297 -1.3113022e-06 5.1629553e-39
1.724473 1.784439 -1.1920929e-06 5.1629553e-39
1.7339979 1.7840457 -1.0728836e-06 5.1629553e-39
1.7435906 1.7856565 -1.2516975e-06 5.1629553e-39
1.7564719 1.7851334 -1.1920929e-06 5.1629553e-39
1.7662019 1.7847383 -1.3113022e-06 5.1629553e-39
1.7760013 1.7843404 -1.1920929e-06 5.1629553e-39
1.7858574 1.7839402 -1.2516975e-06 5.1629553e-39
1.7957848 1.7855784 -1.3709068e-06 5.1629553e-39
1.8057694 1.7851796 -1.3113022e-06 5.1629553e-39
1.8158265 1.784778 -1.3709068e-06 5.1629553e-39
1.8259242 1.783399 -0.00099830481 5.1629553e-39
1.8361322 1.7860351 -1.4305115e-06 5.1629553e-39
1.8463817 1.7856325 -1.4305115e-06 5.1629553e-39
1.8532549 1.7853627 -1.5497208e-06 5.1629553e-39
1.8636254 1.7849551 -1.3709068e-06 5.1629553e-39
1.8740575 1.7845455 -1.4305115e-06 5.1629553e-39
1.8845668 1.7841328 -1.3709068e-06 5.1629553e-39
1.8951389 1.7837174 -1.3113022e-06 5.1629553e-39
1.90579 1.7854137 -1.4305115e-06 5.1629553e-39
1.916505 1.7849998 -1.3113022e-06 5.1629553e-39
1.9236914 1.7847227 -1.4305115e-06 5.1629553e-39
1.9338106 1.7851864 -1.3589859e-06 5.1629553e-39
1.9454459 1.7860234 -1.4305115e-06 5.1629553e-39
1.9527634 1.7857459 -1.4305115e-06 5.1629553e-39
1.9638066 1.7853267 -1.3709068e-06 5.1629553e-39
1.9749171 1.7849052 -1.3113022e-06 5.1629553e-39
1.986113 1.7844805 -1.4305115e-06 5.1629553e-39
1.9973778 1.7840531 -1.5497208e-06 5.1629553e-39
2.0049336 1.7837663 -1.4305115e-06 5.1629553e-39
2.0125246 1.7834783 -1.3113022e-06 5.1629553e-39
2.023982 1.7852367 -1.3709068e-06 5.1629553e-39
2.0355105 1.7848068 -1.4305115e-06 5.1629553e-39
2.0432441 1.7845187 -1.4305115e-06 5.1629553e-39
2.0510139 1.7864401 -1.3113022e-06 5.1629553e-39
2.1226177 1.7838187 -1.5497208e-06 5.1629553e-39
2.1306708 1.7840906 -0.00023610277 5.1629553e-39
1.3264077 1.7904952 -1.1920929e-06 5.1629553e-39
1.3340496 1.7929243 -1.3113022e-06 5.1629553e-39
1.3431804 1.7949557 -1.3113022e-06 5.1629553e-39
1.352861 1.7962832 -1.3113022e-06 5.1629553e-39
1.3650671 1.7957633 -1.2715658e-06 5.1629553e-39
1.3773794 1.7952386 -1.2516975e-06 5.1629553e-39
1.3873156 1.7948154 -1.3113022e-06 5.1629553e-39
1.3973266 1.7943889 -1.3113022e-06 5.1629553e-39
1.4074135 1.7939591 -1.3113022e-06 5.1629553e-39
1.4150261 1.7936348 -1.1920929e-06 5.1629553e-39
1.4226872 1.7951012 -1.1920929e-06 5.1629553e-39
1.4334829 1.7957293 -1.2397766e-06 5.1629553e-39
1.4433255 1.7960423 -1.3709068e-06 5.1629553e-39
1.4537636 1.7956117 -1.3113022e-06 5.1629553e-39
1.4642825 1.7951773 -1.2516975e-06 5.1629553e-39
1.4748827 1.7947397 -1.2119611e-06 5.1629553e-39
1.4855657 1.7942988 -1.1920929e-06 5.1629553e-39
1.4960489 1.7947104 -0.001183391 5.1629553e-39
1.5071826 1.7952558 -1.1324883e-06 5.1629553e-39
1.5153741 1.7949233 -1.3113022e-06 5.1629553e-39
1.5236194 1.7945886 -1.1920929e-06 5.1629553e-39
1.5346856 1.7960066 -1.3113022e-06 5.1629553e-39
1.5458398 1.7955608 -1.1920929e-06 5.1629553e-39
1.5570831 1.795112 -1.1324883e-06 5.1629553e-39
1.5655719 1.7947727 -1.1920929e-06 5.1629553e-39
1.5741173 1.7944316 -1.2516975e-06 5.1629553e-39
1.5855883 1.7939734 -1.1722246e-06 5.1629553e-39
1.5942491 1.7955344 -1.0728836e-06 5.1629553e-39
1.6029688 1.7951921 -1.1920929e-06 5.1629553e-39
1.6146736 1.7947323 -1.1920929e-06 5.1629553e-39
1.6270666 1.7948078 -0.00079451082 5.1629553e-39
1.6353855 1.7958533 -1.1920929e-06 5.1629553e-39
1.6437645 1.7950622 -0.0003259432 5.1629553e-39
1.6564031 1.7950419 -1.2516975e-06 5.1629553e-39
1.6650642 1.7948701 -0.0002813598 5.1629553e-39
1.6746588 1.7943372 -1.2516975e-06 5.1629553e-39
1.6838692 1.7939816 -1.1920929e-06 5.1629553e-39
1.6931438 1.7955962 -1.2516975e-06 5.1629553e-39
1.7055964 1.7951238 -1.1324883e-06 5.1629553e-39
1.7149869 1.7936293 -0.0012259193 5.1629553e-39
1.724473 1.7944075 -1.1920929e-06 5.1629553e-39
1.7332553 1.7930855 -0.00010262075 5.1629553e-39
1.7435907 1.7956886 -1.2516975e-06 5.1629553e-39
1.7564718 1.7952085 -1.1920929e-06 5.1629553e-39
1.7662019 1.7948457 -1.3113022e-06 5.1629553e-39
1.7760013 1.7944804 -1.1920929e-06 5.1629553e-39
1.7858576 1.7941128 -1.1920929e-06 5.1629553e-39
1.7952036 1.7958508 -0.00057998352 5.1629553e-39
1.8057694 1.7954187 -1.3113022e-06 5.1629553e-39
1.8158265 1.7950506 -1.3709068e-06 5.1629553e-39
1.8259425 1.7946804 -1.5497208e-06 5.1629553e-39
1.836132 1.7943071 -1.4305115e-06 5.1629553e-39
1.8463817 1.793932 -1.4305115e-06 5.1629553e-39
1.8532549 1.7957598 -1.5497208e-06 5.1629553e-39
1.8636255 1.7953869 -1.4305115e-06 5.1629553e-39
1.8740574 1.795012 -1.4305115e-06 5.1629553e-39
1.8845668 1.7946343 -1.3709068e-06 5.1629553e-39
1.8951389 1.7942542 -1.3113022e-06 5.1629553e-39
1.9057901 1.7959857 -1.4305115e-06 5.1629553e-39
1.916505 1.7956076 -1.3113022e-06 5.1629553e-39
1.9236914 1.7953542 -1.4305115e-06 5.1629553e-39
1.9345357 1.7949715 -1.3709068e-06 5.1629553e-39
1.9454459 1.7945867 -1.4305115e-06 5.1629553e-39
1.9527634 1.7943285 -1.4305115e-06 5.1629553e-39
1.9638066 1.7939389 -1.3709068e-06 5.1629553e-39
1.9749171 1.7935469 -1.3113022e-06 5.1629553e-39
1.986113 1.7953197 -1.4305115e-06 5.1629553e-39
1.9973778 1.79493 -1.5497208e-06 5.1629553e-39
2.0049336 1.7946683 -1.4305115e-06 5.1629553e-39
2.0125246 1.7944056 -1.3113022e-06 5.1629553e-39
2.023982 1.7962022 -1.3709068e-06 5.1629553e-39
2.0355105 1.7958107 -1.4305115e-06 5.1629553e-39
2.0432441 1.7955482 -1.4305115e-06 5.1629553e-39
2.0510139 1.7952844 -1.3113022e-06 5.1629553e-39
2.1226177 1.7951123 -1.5497208e-06 5.1629553e-39
2.1307647 1.7925769 -1.3113022e-06 5.1629553e-39
1.3439841 1.8013033 -1.3113022e-06 5.1629553e-39
1.352861 1.805015 -1.3113022e-06 5.1629553e-39
1.3650672 1.8062901 -1.2715658e-06 5.1629553e-39
1.3773794 1.8058147 -1.2516975e-06 5.1629553e-39
1.3873158 1.8054312 -1.3709068e-06 5.1629553e-39
1.3973266 1.8050445 -1.3113022e-06 5.1629553e-39
1.4074135 1.8046551 -1.3113022e-06 5.1629553e-39
1.4150261 1.804361 -1.1920929e-06 5.1629553e-39
1.4226872 1.8040652 -1.1920929e-06 5.1629553e-39
1.432451 1.804409 -1.2636185e-06 5.1629553e-39
1.4433255 1.8050752 -1.3709068e-06 5.1629553e-39
1.4537637 1.8046793 -1.3113022e-06 5.1629553e-39
